748403.97,572040.04,40.65,6434
748404.71,572035.6,41.4,6434
748405.12,572033.14,41.300000000000004,6434
748405.49,572030.9500000001,41.31,6434
748405.93,572028.36,40.89,6434
748406.3,572026.11,40.88,6434
748406.6900000001,572023.79,40.79,6434
748407.0700000001,572021.52,40.82,6434
748407.47,572019.13,40.76,6434
748407.89,572016.68,40.7,6434
748408.26,572014.4500000001,40.71,6434
748402.27,572038.72,40.53,6434
748402.98,572034.41,41.27,6434
748403.36,572032.15,41.31,6434
748403.77,572029.73,41.25,6434
748404.1900000001,572027.26,40.84,6434
748404.58,572024.92,40.77,6434
748404.98,572022.55,40.730000000000004,6434
748405.37,572020.2000000001,40.67,6434
748405.74,572018.0,40.64,6434
748406.14,572015.61,40.57,6434
748401.01,572033.27,41.21,6434
748401.4,572030.98,41.2,6434
748401.78,572028.71,41.18,6434
748402.2000000001,572026.24,40.660000000000004,6434
748402.59,572023.9,40.63,6434
748403.0,572021.46,40.58,6434
748403.38,572019.1900000001,40.550000000000004,6434
748403.79,572016.75,40.53,6434
748399.7000000001,572032.25,41.24,6434
748400.08,572030.0,41.21,6434
748400.49,572027.55,41.08,6434
748400.9,572025.17,40.65,6434
748401.29,572022.83,40.58,6434
748401.67,572020.5700000001,40.54,6434
748402.0700000001,572018.16,40.550000000000004,6434
748398.24,572035.72,41.24,6434
748398.62,572033.46,41.160000000000004,6434
748399.01,572031.14,41.160000000000004,6434
748399.41,572028.74,41.13,6434
748399.8200000001,572026.3200000001,40.84,6434
748400.23,572023.9,40.58,6434
748400.63,572021.53,40.54,6434
748401.01,572019.22,40.5,6434
748397.43,572031.92,41.160000000000004,6434
748397.81,572029.66,41.09,6434
748398.2000000001,572027.34,41.1,6434
748398.6,572024.9400000001,40.59,6434
748399.02,572022.5,40.49,6434
748399.41,572020.14,40.43,6434
748395.6,572030.81,41.04,6434
748395.99,572028.46,41.03,6434
748396.38,572026.12,41.0,6434
748396.81,572023.61,40.37,6434
748397.1900000001,572021.3200000001,40.27,6434
748393.52,572032.48,41.54,6434
748393.9400000001,572030.01,40.99,6434
748394.34,572027.63,40.93,6434
748394.75,572025.1900000001,40.92,6434
748395.15,572022.85,40.54,6434
748395.5700000001,572020.34,40.230000000000004,6434
748392.76,572028.97,40.910000000000004,6434
748393.15,572026.68,40.88,6434
748393.52,572024.43,40.88,6434
748393.96,572021.85,40.33,6434
748391.34,572028.1900000001,40.89,6434
748391.75,572025.76,40.83,6434
748392.14,572023.47,40.800000000000004,6434
748389.58,572029.86,40.75,6434
748390.38,572025.09,40.74,6434
748388.88,572024.34,40.68,6434
748384.9500000001,572026.96,40.58,6434
748383.42,572027.31,40.42,6434
748387.8,572025.8,40.730000000000004,6434
748390.01,572025.18,40.75,6434
748390.22,572027.49,40.800000000000004,6434
748391.5700000001,572024.43,40.84,6434
748391.79,572026.91,40.89,6434
748392.0,572029.31,41.02,6434
748392.89,572021.71,40.5,6434
748393.09,572023.98,40.89,6434
748393.3,572026.36,40.94,6434
748393.51,572028.74,40.97,6434
748395.13,572021.52,40.32,6434
748395.54,572026.12,41.06,6434
748395.97,572031.0,41.17,6434
748397.75,572020.8200000001,40.34,6434
748397.9500000001,572023.13,40.5,6434
748398.16,572025.49,40.72,6434
748398.37,572027.77,41.14,6434
748398.59,572030.29,41.22,6434
748398.8,572032.64,41.27,6434
748399.64,572020.49,40.4,6434
748399.85,572022.84,40.5,6434
748400.0700000001,572025.34,40.61,6434
748400.27,572027.4400000001,41.12,6434
748400.48,572029.85,41.21,6434
748400.7000000001,572032.24,41.24,6434
748400.92,572034.74,41.35,6434
748404.38,572034.42,41.37,6434
748404.59,572036.81,41.49,6434
748400.86,572017.85,40.44,6434
748401.08,572020.22,40.43,6434
748401.29,572022.62,40.57,6434
748401.5,572025.05,40.67,6434
748401.73,572027.55,40.78,6434
748401.93,572029.74,41.230000000000004,6434
748402.16,572032.29,41.27,6434
748402.37,572034.63,41.27,6434
748402.87,572017.61,40.57,6434
748403.08,572019.98,40.56,6434
748403.31,572022.48,40.730000000000004,6434
748403.51,572024.8200000001,40.78,6434
748403.73,572027.2000000001,40.89,6434
748403.93,572029.4400000001,41.18,6434
748404.15,572031.9400000001,41.35,6434
748405.1900000001,572016.92,40.78,6434
748405.4,572019.35,40.72,6434
748405.63,572021.84,40.79,6434
748405.85,572024.39,40.84,6434
748406.06,572026.74,40.78,6434
748406.28,572029.25,40.910000000000004,6434
748406.48,572031.47,41.32,6434
748406.7000000001,572033.84,41.46,6434
748406.91,572036.2000000001,41.480000000000004,6434
748407.14,572038.74,41.550000000000004,6434
748407.25,572014.0700000001,40.62,6434
748407.4500000001,572016.39,40.730000000000004,6434
748407.89,572021.24,40.9,6434
748408.11,572023.6900000001,40.86,6434
748408.31,572026.02,40.92,6434
748408.54,572028.56,41.03,6434
748408.76,572031.0700000001,41.02,6434
748408.96,572033.29,41.44,6434
748409.1900000001,572035.77,41.550000000000004,6434
748409.4,572038.18,41.63,6434
748409.61,572040.48,41.7,6434
748412.81,572033.11,41.13,6434
748413.02,572035.52,41.300000000000004,6434
748413.22,572037.7000000001,41.730000000000004,6434
748413.4400000001,572040.13,41.71,6434
748413.67,572042.64,41.730000000000004,6434
748409.18,572013.64,40.74,6434
748409.39,572015.98,40.79,6434
748409.61,572018.5,40.89,6434
748409.83,572020.9500000001,40.99,6434
748410.05,572023.36,41.03,6434
748410.26,572025.84,41.04,6434
748410.48,572028.29,41.06,6434
748410.6900000001,572030.67,41.04,6434
748410.91,572033.0700000001,41.06,6434
748411.12,572035.39,41.57,6434
748411.35,572037.91,41.660000000000004,6434
748411.56,572040.27,41.63,6434
748411.79,572042.81,41.69,6434
748411.06,572013.56,40.81,6434
748411.29,572016.11,40.84,6434
748411.5,572018.38,41.04,6434
748411.71,572020.83,41.04,6434
748411.92,572023.17,41.08,6434
748412.14,572025.75,41.050000000000004,6434
748412.37,572028.24,41.08,6434
748412.9400000001,572012.86,40.84,6434
748413.17,572015.41,40.93,6434
748413.39,572017.86,41.0,6434
748413.6,572020.23,41.06,6434
748413.83,572022.72,41.11,6434
748414.04,572025.18,41.07,6434
748414.24,572027.5,41.17,6434
748414.46,572029.96,41.15,6434
748414.6900000001,572032.46,41.14,6434
748414.92,572034.99,41.24,6434
748415.12,572037.2000000001,41.58,6434
748415.34,572039.68,41.72,6434
748415.56,572042.05,41.800000000000004,6434
748415.78,572044.51,41.79,6434
748414.79,572010.09,40.76,6434
748415.01,572012.5700000001,40.9,6434
748415.23,572014.93,41.0,6434
748415.4400000001,572017.34,41.02,6434
748415.65,572019.66,41.08,6434
748416.09,572024.68,41.19,6434
748416.3,572027.0700000001,41.230000000000004,6434
748416.53,572029.55,41.28,6434
748416.75,572032.01,41.26,6434
748416.96,572034.36,41.32,6434
748417.18,572036.8200000001,41.29,6434
748417.39,572039.12,41.68,6434
748417.62,572041.66,41.79,6434
748417.83,572044.02,41.83,6434
748418.06,572046.56,41.85,6434
748417.51,572016.84,41.03,6434
748417.73,572019.23,41.14,6434
748417.9500000001,572021.67,41.230000000000004,6434
748418.15,572024.03,41.230000000000004,6434
748418.37,572026.4500000001,41.230000000000004,6434
748418.59,572028.93,41.26,6434
748419.03,572033.88,41.29,6434
748419.26,572036.4,41.34,6434
748419.47,572038.8,41.31,6434
748419.68,572041.02,41.85,6434
748419.89,572043.39,41.81,6434
748420.12,572045.92,41.86,6434
748420.34,572048.41,41.97,6434
748418.9400000001,572009.3200000001,40.96,6434
748419.16,572011.72,41.0,6434
748419.37,572014.1,41.01,6434
748416.85,572009.4500000001,40.84,6434
748417.0700000001,572011.93,40.97,6434
748417.3,572014.4400000001,40.96,6434
748420.03,572021.4,41.34,6434
748420.24,572023.8,41.31,6434
748420.46,572026.3,41.4,6434
748420.67,572028.73,41.300000000000004,6434
748420.89,572031.17,41.33,6434
748421.1,572033.5,41.43,6434
748421.33,572036.08,41.38,6434
748421.56,572038.59,41.36,6434
748421.78,572041.03,41.410000000000004,6434
748421.99,572043.29,41.86,6434
748422.2000000001,572045.7000000001,41.93,6434
748422.42,572048.15,41.85,6434
748422.64,572050.52,42.06,6434
748420.9,572008.62,40.92,6434
748421.13,572011.12,40.910000000000004,6434
748421.34,572013.49,41.0,6434
748421.5700000001,572015.9400000001,41.08,6434
748421.78,572018.3200000001,41.18,6434
748421.99,572020.72,41.18,6434
748422.21,572023.09,41.300000000000004,6434
748422.42,572025.53,41.33,6434
748422.65,572028.16,41.28,6434
748422.86,572030.48,41.4,6434
748423.09,572032.99,41.44,6434
748423.3,572035.41,41.36,6434
748423.52,572037.86,41.410000000000004,6434
748423.73,572040.24,41.35,6434
748423.96,572042.77,41.45,6434
748424.18,572045.15,41.85,6434
748424.39,572047.51,41.85,6434
748424.62,572050.05,41.910000000000004,6434
748422.91,572010.34,41.02,6434
748423.12,572012.75,41.07,6434
748423.34,572015.24,41.11,6434
748423.5700000001,572017.72,41.27,6434
748423.78,572020.06,41.27,6434
748424.0,572022.59,41.35,6434
748424.21,572024.96,41.39,6434
748425.66,572019.31,41.28,6434
748425.88,572021.86,41.36,6434
748426.1,572024.37,41.33,6434
748426.31,572026.74,41.4,6434
748426.53,572029.21,41.46,6434
748426.75,572031.66,41.49,6434
748426.96,572034.0,41.52,6434
748427.18,572036.46,41.5,6434
748427.41,572039.0,41.4,6434
748427.64,572041.61,41.35,6434
748427.86,572043.96,41.37,6434
748428.0700000001,572046.3,41.83,6434
748428.28,572048.6900000001,41.93,6434
748428.5,572051.16,41.87,6434
748428.71,572053.49,41.9,6434
748424.64,572029.74,41.39,6434
748424.87,572032.28,41.45,6434
748425.09,572034.78,41.46,6434
748425.31,572037.25,41.37,6434
748425.53,572039.75,41.36,6434
748425.76,572042.24,41.34,6434
748425.96,572044.46,41.65,6434
748426.17,572046.78,41.92,6434
748426.4,572049.33,41.910000000000004,6434
748426.63,572051.88,41.93,6434
748424.34,572004.63,41.43,6434
748424.5700000001,572007.1900000001,41.44,6434
748424.78,572009.52,41.45,6434
748425.02,572012.24,41.06,6434
748425.23,572014.59,41.12,6434
748425.4500000001,572017.01,41.160000000000004,6434
748426.77,572004.12,41.51,6434
748426.98,572006.48,41.51,6434
748427.1900000001,572008.85,41.58,6434
748427.42,572011.37,41.54,6434
748427.65,572014.06,41.230000000000004,6434
748427.87,572016.43,41.21,6434
748428.09,572018.9400000001,41.28,6434
748428.3,572021.29,41.37,6434
748428.51,572023.71,41.39,6434
748428.72,572026.01,41.51,6434
748428.9500000001,572028.5700000001,41.49,6434
748429.17,572031.05,41.56,6434
748429.39,572033.5,41.51,6434
748429.61,572036.01,41.51,6434
748429.83,572038.5,41.44,6434
748432.22,572040.09,41.36,6434
748432.4500000001,572042.63,41.43,6434
748432.67,572045.03,41.43,6434
748432.89,572047.51,41.38,6434
748433.09,572049.64,41.87,6434
748433.3200000001,572052.22,41.86,6434
748433.54,572054.73,41.9,6434
748433.75,572057.18,41.910000000000004,6434
748430.05,572040.86,41.46,6434
748430.27,572043.3,41.45,6434
748430.49,572045.8200000001,41.43,6434
748430.71,572048.18,41.910000000000004,6434
748430.92,572050.5700000001,41.9,6434
748431.15,572053.1,41.92,6434
748431.36,572055.53,41.9,6434
748429.14,572005.59,41.68,6434
748429.38,572008.1900000001,41.58,6434
748429.59,572010.54,41.64,6434
748429.81,572012.96,41.63,6434
748430.03,572015.5,41.27,6434
748430.48,572020.52,41.31,6434
748430.6900000001,572022.89,41.410000000000004,6434
748430.9,572025.33,41.480000000000004,6434
748431.13,572027.8200000001,41.45,6434
748431.34,572030.18,41.5,6434
748431.55,572032.55,41.59,6434
748431.78,572035.08,41.49,6434
748432.01,572037.68,41.52,6434
748430.4,572002.74,41.35,6434
748430.6,572004.97,41.78,6434
748430.83,572007.53,41.63,6434
748431.05,572010.05,41.69,6434
748431.26,572012.38,41.71,6434
748431.51,572015.16,41.31,6434
748431.72,572017.54,41.27,6434
748431.9400000001,572019.92,41.31,6434
748432.15,572022.26,41.49,6434
748432.36,572024.77,41.480000000000004,6434
748432.59,572027.33,41.49,6434
748432.8,572029.65,41.53,6434
748433.03,572032.18,41.61,6434
748433.25,572034.59,41.6,6434
748433.46,572037.01,41.6,6434
748433.68,572039.39,41.57,6434
748433.92,572042.06,41.46,6434
748434.14,572044.56,41.42,6434
748434.35,572046.9500000001,41.45,6434
748434.59,572049.54,41.4,6434
748434.79,572051.73,41.95,6434
748435.0,572054.0700000001,41.93,6434
748435.21,572056.56,41.92,6434
748435.4400000001,572059.06,41.92,6434
748432.62,572009.5700000001,41.65,6434
748432.83,572011.93,41.67,6434
748433.06,572014.4400000001,41.77,6434
748433.29,572017.14,41.25,6434
748433.51,572019.54,41.32,6434
748433.73,572022.04,41.37,6434
748433.9400000001,572024.46,41.410000000000004,6434
748434.15,572026.76,41.480000000000004,6434
748434.37,572029.21,41.5,6434
748434.59,572031.72,41.53,6434
748434.8200000001,572034.25,41.550000000000004,6434
748435.03,572036.63,41.56,6434
748435.26,572039.2000000001,41.49,6434
748435.48,572041.63,41.42,6434
748435.7000000001,572044.0700000001,41.42,6434
748435.91,572046.4500000001,41.4,6434
748436.15,572049.0700000001,41.37,6434
748436.37,572051.49,41.53,6434
748436.58,572053.79,41.82,6434
748436.8,572056.3,41.85,6434
748437.01,572058.76,41.89,6434
748437.21,572060.88,42.4,6434
748434.81,572006.52,41.9,6434
748435.25,572011.47,41.81,6434
748435.46,572013.89,41.87,6434
748435.68,572016.28,41.81,6434
748435.9,572018.85,41.45,6434
748436.13,572021.35,41.480000000000004,6434
748436.35,572023.9,41.47,6434
748436.56,572026.23,41.52,6434
748436.79,572028.77,41.57,6434
748437.0,572031.16,41.56,6434
748431.97,572002.35,41.4,6434
748438.06,572013.1,41.79,6434
748438.27,572015.48,41.9,6434
748438.49,572017.9400000001,41.84,6434
748438.73,572020.66,41.34,6434
748438.93,572022.99,41.44,6434
748437.22,572033.58,41.64,6434
748437.43,572035.96,41.58,6434
748437.66,572038.54,41.6,6434
748437.89,572041.05,41.57,6434
748438.1,572043.49,41.58,6434
748438.33,572046.0,41.47,6434
748438.55,572048.46,41.52,6434
748438.77,572050.88,41.480000000000004,6434
748437.62,572008.1900000001,41.47,6434
748439.21,572047.52,41.410000000000004,6434
748439.33,572034.99,41.54,6434
748439.25,572024.65,41.45,6434
748439.29,572011.47,41.83,6434
748439.15,572025.39,41.410000000000004,6434
748438.98,572053.25,41.54,6434
748484.36,572049.42,40.83,6434
748484.74,572047.12,40.82,6434
748482.4400000001,572050.54,40.43,6434
748482.81,572048.26,40.89,6434
748483.18,572046.06,40.88,6434
748483.58,572043.64,40.88,6434
748481.2000000001,572051.62,40.45,6434
748481.58,572049.33,40.42,6434
748481.93,572047.25,40.910000000000004,6434
748482.33,572044.85,40.96,6434
748482.71,572042.5,40.97,6434
748479.62,572052.76,40.46,6434
748479.99,572050.53,40.49,6434
748480.38,572048.17,40.57,6434
748480.73,572046.05,40.96,6434
748481.11,572043.74,41.02,6434
748481.48,572041.54,41.03,6434
748477.29,572056.48,40.54,6434
748477.67,572054.18,40.56,6434
748478.04,572051.9500000001,40.47,6434
748478.4400000001,572049.52,40.54,6434
748478.83,572047.1900000001,40.58,6434
748479.18,572045.05,41.06,6434
748479.58,572042.6900000001,41.03,6434
748479.96,572040.39,41.1,6434
748475.4,572057.6900000001,40.550000000000004,6434
748475.77,572055.42,40.67,6434
748476.17,572053.04,40.63,6434
748476.54,572050.77,40.64,6434
748476.91,572048.54,40.6,6434
748477.3,572046.1900000001,40.57,6434
748477.66,572044.01,41.11,6434
748478.06,572041.62,41.14,6434
748478.43,572039.34,41.160000000000004,6434
748473.64,572058.6900000001,40.69,6434
748474.01,572056.46,40.65,6434
748474.41,572054.1,40.730000000000004,6434
748474.81,572051.65,40.56,6434
748475.18,572049.43,40.7,6434
748475.58,572047.02,40.68,6434
748475.93,572044.87,40.95,6434
748476.3,572042.65,41.2,6434
748476.67,572040.41,41.230000000000004,6434
748477.0700000001,572037.99,41.230000000000004,6434
748471.79,572059.61,40.660000000000004,6434
748472.17,572057.3,40.800000000000004,6434
748472.55,572055.0,40.71,6434
748472.91,572052.8,40.79,6434
748473.3,572050.4400000001,40.730000000000004,6434
748473.6900000001,572048.12,40.76,6434
748474.09,572045.7000000001,40.730000000000004,6434
748474.4400000001,572043.59,41.22,6434
748474.83,572041.1900000001,41.29,6434
748475.2000000001,572038.98,41.28,6434
748475.59,572036.67,41.31,6434
748473.0,572045.16,40.75,6434
748473.37,572042.89,41.18,6434
748473.76,572040.58,41.31,6434
748474.14,572038.25,41.34,6434
748474.53,572035.92,41.37,6434
748470.33,572061.31,40.660000000000004,6434
748470.71,572058.98,40.67,6434
748471.11,572056.6,40.69,6434
748471.48,572054.36,40.76,6434
748471.88,572051.92,40.730000000000004,6434
748472.24,572049.73,40.800000000000004,6434
748472.63,572047.41,40.81,6434
748471.56,572046.64,40.800000000000004,6434
748471.9400000001,572044.33,40.84,6434
748472.29,572042.21,41.21,6434
748472.66,572039.96,41.37,6434
748473.06,572037.59,41.34,6434
748473.4500000001,572035.18,41.39,6434
748468.88,572062.79,40.660000000000004,6434
748469.25,572060.54,40.78,6434
748469.64,572058.22,40.69,6434
748470.0,572056.05,40.76,6434
748470.41,572053.6,40.78,6434
748470.79,572051.25,40.81,6434
748471.17,572049.0,40.82,6434
748470.29,572043.52,40.85,6434
748470.68,572041.16,41.2,6434
748471.04,572038.99,41.4,6434
748471.41,572036.73,41.43,6434
748471.79,572034.4500000001,41.42,6434
748466.85,572064.27,40.57,6434
748467.24,572061.9,40.65,6434
748467.61,572059.7000000001,40.730000000000004,6434
748468.01,572057.27,40.77,6434
748468.37,572055.08,40.84,6434
748468.76,572052.77,40.82,6434
748469.13,572050.55,40.83,6434
748469.52,572048.13,40.85,6434
748469.93,572045.72,40.81,6434
748464.56,572065.4500000001,40.67,6434
748464.9400000001,572063.15,40.730000000000004,6434
748465.31,572060.93,40.75,6434
748465.71,572058.53,40.83,6434
748466.09,572056.22,40.81,6434
748466.47,572053.93,40.980000000000004,6434
748466.86,572051.5700000001,40.94,6434
748467.24,572049.3,40.910000000000004,6434
748467.61,572047.0700000001,40.95,6434
748467.99,572044.74,41.02,6434
748468.38,572042.41,40.97,6434
748468.77,572040.05,41.11,6434
748469.13,572037.87,41.480000000000004,6434
748469.53,572035.48,41.5,6434
748469.9,572033.26,41.51,6434
748462.8,572066.81,40.660000000000004,6434
748463.18,572064.53,40.79,6434
748463.5700000001,572062.1900000001,40.77,6434
748463.9400000001,572059.91,40.800000000000004,6434
748464.31,572057.68,40.85,6434
748464.6900000001,572055.41,40.94,6434
748465.0700000001,572053.09,40.97,6434
748465.48,572050.67,40.980000000000004,6434
748465.85,572048.41,40.97,6434
748466.25,572045.99,40.980000000000004,6434
748466.62,572043.77,40.93,6434
748467.0,572041.47,40.92,6434
748467.37,572039.25,41.1,6434
748467.74,572036.98,41.550000000000004,6434
748468.13,572034.63,41.56,6434
748468.51,572032.33,41.6,6434
748461.4400000001,572068.77,40.87,6434
748461.8200000001,572066.47,40.79,6434
748462.21,572064.13,40.74,6434
748462.61,572061.6900000001,40.76,6434
748462.98,572059.5,40.84,6434
748463.37,572057.11,40.89,6434
748463.75,572054.86,40.95,6434
748464.13,572052.58,41.01,6434
748464.49,572050.38,41.03,6434
748464.9,572047.9400000001,40.980000000000004,6434
748465.28,572045.59,40.980000000000004,6434
748465.67,572043.26,40.93,6434
748466.06,572040.93,41.0,6434
748466.43,572038.66,41.09,6434
748466.78,572036.55,41.57,6434
748467.16,572034.25,41.56,6434
748467.55,572031.9,41.53,6434
748459.9400000001,572070.3200000001,41.06,6434
748460.34,572067.9,40.88,6434
748460.73,572065.5700000001,40.78,6434
748461.1,572063.35,40.74,6434
748461.47,572061.11,40.910000000000004,6434
748461.86,572058.76,40.95,6434
748462.26,572056.34,40.93,6434
748462.63,572054.13,40.94,6434
748463.02,572051.74,41.04,6434
748463.4,572049.48,40.99,6434
748463.78,572047.2000000001,41.04,6434
748464.14,572044.99,41.06,6434
748464.55,572042.54,41.1,6434
748464.9500000001,572040.14,41.08,6434
748465.3200000001,572037.93,41.03,6434
748465.6900000001,572035.65,41.6,6434
748466.0700000001,572033.4,41.62,6434
748466.4400000001,572031.13,41.65,6434
748457.75,572071.73,41.14,6434
748458.13,572069.43,41.160000000000004,6434
748458.53,572067.02,41.14,6434
748458.92,572064.68,40.78,6434
748459.3200000001,572062.29,40.87,6434
748459.68,572060.09,40.95,6434
748460.06,572057.83,40.99,6434
748460.43,572055.55,40.980000000000004,6434
748460.83,572053.17,41.09,6434
748461.21,572050.88,41.14,6434
748461.59,572048.5700000001,41.12,6434
748461.99,572046.18,41.12,6434
748462.37,572043.91,41.160000000000004,6434
748462.74,572041.66,41.09,6434
748463.13,572039.3200000001,41.08,6434
748463.51,572037.01,41.12,6434
748463.89,572034.73,41.61,6434
748464.26,572032.5,41.68,6434
748464.66,572030.09,41.72,6434
748456.0,572070.71,41.19,6434
748456.38,572068.4400000001,41.27,6434
748456.75,572066.18,41.32,6434
748457.17,572063.66,40.84,6434
748457.56,572061.31,40.85,6434
748457.9400000001,572059.01,40.910000000000004,6434
748458.33,572056.7000000001,40.97,6434
748458.7000000001,572054.4500000001,41.09,6434
748459.0700000001,572052.18,41.03,6434
748459.4500000001,572049.91,41.13,6434
748459.84,572047.56,41.11,6434
748460.24,572045.1900000001,41.19,6434
748460.61,572042.91,41.14,6434
748461.02,572040.48,41.08,6434
748461.38,572038.29,41.18,6434
748461.77,572035.96,41.13,6434
748462.11,572033.85,41.68,6434
748462.51,572031.46,41.7,6434
748462.9,572029.1,41.7,6434
748454.79,572069.71,41.28,6434
748455.18,572067.41,41.27,6434
748455.55,572065.15,41.38,6434
748455.9500000001,572062.76,40.980000000000004,6434
748456.33,572060.46,40.95,6434
748456.71,572058.18,41.050000000000004,6434
748457.11,572055.77,41.1,6434
748457.48,572053.51,41.1,6434
748457.87,572051.15,41.17,6434
748458.25,572048.93,41.25,6434
748458.63,572046.63,41.26,6434
748459.0,572044.37,41.230000000000004,6434
748459.4,572041.9500000001,41.18,6434
748459.79,572039.62,41.22,6434
748460.17,572037.31,41.29,6434
748460.5700000001,572034.93,41.230000000000004,6434
748460.92,572032.8,41.730000000000004,6434
748461.3,572030.54,41.78,6434
748461.68,572028.24,41.79,6434
748454.34,572066.61,41.46,6434
748454.73,572064.28,41.4,6434
748455.14,572061.8200000001,40.89,6434
748455.52,572059.54,40.92,6434
748455.89,572057.3200000001,41.12,6434
748456.26,572055.04,41.14,6434
748456.65,572052.73,41.18,6434
748457.05,572050.3,41.17,6434
748457.42,572048.05,41.29,6434
748457.8200000001,572045.6900000001,41.22,6434
748458.2000000001,572043.4,41.26,6434
748458.5700000001,572041.13,41.160000000000004,6434
748458.96,572038.83,41.230000000000004,6434
748459.34,572036.49,41.22,6434
748459.74,572034.1,41.28,6434
748460.09,572031.98,41.78,6434
748460.49,572029.56,41.78,6434
748460.87,572027.33,41.75,6434
748453.47,572063.37,41.31,6434
748453.89,572060.84,41.0,6434
748454.26,572058.65,41.07,6434
748454.65,572056.27,41.12,6434
748455.02,572054.03,41.21,6434
748455.4,572051.75,41.21,6434
748455.78,572049.5,41.21,6434
748456.16,572047.16,41.32,6434
748456.56,572044.76,41.24,6434
748456.9500000001,572042.4400000001,41.28,6434
748457.33,572040.12,41.230000000000004,6434
748457.71,572037.83,41.31,6434
748458.09,572035.56,41.29,6434
748458.47,572033.27,41.29,6434
748458.83,572031.09,41.84,6434
748459.24,572028.65,41.83,6434
748459.61,572026.41,41.86,6434
748452.03,572060.16,41.06,6434
748452.4400000001,572057.74,41.1,6434
748452.8200000001,572055.41,41.13,6434
748453.2000000001,572053.15,41.18,6434
748453.59,572050.81,41.25,6434
748453.97,572048.51,41.31,6434
748454.34,572046.29,41.35,6434
748454.72,572043.97,41.300000000000004,6434
748455.11,572041.61,41.29,6434
748455.51,572039.21,41.32,6434
748455.89,572036.96,41.24,6434
748456.29,572034.58,41.28,6434
748456.66,572032.31,41.33,6434
748457.01,572030.17,41.93,6434
748457.38,572027.9500000001,41.86,6434
748457.79,572025.51,41.84,6434
748451.62,572052.3,41.22,6434
748452.02,572049.92,41.37,6434
748452.39,572047.6900000001,41.33,6434
748452.79,572045.29,41.43,6434
748453.16,572043.03,41.36,6434
748453.55,572040.76,41.35,6434
748453.92,572038.47,41.35,6434
748454.33,572036.06,41.38,6434
748454.71,572033.73,41.300000000000004,6434
748455.1,572031.41,41.38,6434
748455.46,572029.2000000001,41.89,6434
748455.84,572026.93,41.92,6434
748456.22,572024.66,41.86,6434
748451.24,572054.61,41.18,6434
748454.74,572025.87,41.9,6434
748455.14,572023.46,41.9,6434
748449.77,572055.77,41.15,6434
748450.15,572053.51,41.27,6434
748450.52,572051.29,41.25,6434
748450.9,572048.99,41.300000000000004,6434
748451.29,572046.66,41.37,6434
748451.68,572044.27,41.47,6434
748452.0700000001,572041.97,41.4,6434
748452.46,572039.61,41.37,6434
748452.84,572037.31,41.36,6434
748453.21,572035.1,41.4,6434
748453.6,572032.77,41.410000000000004,6434
748453.99,572030.39,41.39,6434
748454.36,572028.15,41.87,6434
748448.9500000001,572052.61,41.28,6434
748449.35,572050.21,41.38,6434
748449.72,572047.98,41.32,6434
748450.1,572045.71,41.42,6434
748450.48,572043.4500000001,41.45,6434
748450.87,572041.06,41.45,6434
748451.27,572038.7000000001,41.38,6434
748451.65,572036.4,41.49,6434
748452.05,572034.02,41.4,6434
748452.43,572031.73,41.42,6434
748452.8,572029.5,41.38,6434
748453.16,572027.3200000001,41.96,6434
748453.55,572024.9400000001,41.89,6434
748453.9500000001,572022.55,41.87,6434
748447.89,572049.8,41.32,6434
748448.27,572047.51,41.35,6434
748448.65,572045.1900000001,41.42,6434
748449.04,572042.87,41.410000000000004,6434
748449.41,572040.64,41.4,6434
748449.79,572038.35,41.410000000000004,6434
748450.18,572036.01,41.4,6434
748450.59,572033.55,41.42,6434
748450.96,572031.31,41.4,6434
748451.36,572028.92,41.36,6434
748451.71,572026.81,41.88,6434
748452.1,572024.48,41.9,6434
748452.47,572022.23,41.83,6434
748445.48,572053.85,41.33,6434
748445.85,572051.62,41.35,6434
748446.23,572049.31,41.34,6434
748446.62,572046.97,41.4,6434
748447.02,572044.58,41.44,6434
748447.39,572042.36,41.47,6434
748447.8,572039.91,41.47,6434
748448.17,572037.66,41.4,6434
748448.55,572035.38,41.43,6434
748448.93,572033.12,41.47,6434
748449.33,572030.6900000001,41.44,6434
748449.72,572028.37,41.43,6434
748450.08,572026.17,41.89,6434
748450.47,572023.84,41.93,6434
748450.86,572021.51,41.910000000000004,6434
748451.22,572019.3200000001,42.11,6434
748444.47,572050.72,41.37,6434
748444.83,572048.52,41.42,6434
748445.22,572046.2000000001,41.39,6434
748445.59,572043.99,41.49,6434
748445.99,572041.58,41.45,6434
748446.38,572039.24,41.53,6434
748446.76,572036.9400000001,41.5,6434
748447.16,572034.56,41.44,6434
748447.54,572032.27,41.52,6434
748447.91,572030.03,41.46,6434
748448.3,572027.7000000001,41.43,6434
748448.67,572025.4500000001,41.85,6434
748449.0700000001,572023.06,41.9,6434
748449.4500000001,572020.79,41.89,6434
748449.84,572018.4,42.03,6434
748443.06,572049.68,41.34,6434
748443.43,572047.47,41.42,6434
748443.83,572045.05,41.52,6434
748444.1900000001,572042.86,41.56,6434
748444.58,572040.55,41.53,6434
748444.9500000001,572038.28,41.56,6434
748445.36,572035.87,41.52,6434
748445.74,572033.53,41.51,6434
748446.13,572031.2000000001,41.51,6434
748446.53,572028.81,41.410000000000004,6434
748446.92,572026.49,41.42,6434
748447.26,572024.43,41.86,6434
748447.64,572022.1,41.94,6434
748448.04,572019.72,41.89,6434
748448.43,572017.39,42.09,6434
748441.31,572051.27,41.410000000000004,6434
748441.6900000001,572049.03,41.4,6434
748442.09,572046.61,41.39,6434
748442.47,572044.3200000001,41.480000000000004,6434
748442.86,572041.98,41.480000000000004,6434
748443.24,572039.67,41.550000000000004,6434
748443.62,572037.39,41.54,6434
748444.0,572035.11,41.5,6434
748444.39,572032.79,41.51,6434
748444.78,572030.4500000001,41.49,6434
748445.18,572028.02,41.480000000000004,6434
748445.56,572025.75,41.43,6434
748445.9400000001,572023.46,41.84,6434
748446.31,572021.24,41.86,6434
748446.6900000001,572018.9400000001,41.89,6434
748447.0700000001,572016.68,41.94,6434
748440.13,572050.76,41.42,6434
748440.52,572048.42,41.4,6434
748440.89,572046.1900000001,41.480000000000004,6434
748441.27,572043.91,41.44,6434
748441.66,572041.58,41.53,6434
748442.06,572039.14,41.49,6434
748442.43,572036.93,41.59,6434
748442.83,572034.51,41.56,6434
748443.21,572032.24,41.46,6434
748443.6,572029.92,41.46,6434
748443.97,572027.6900000001,41.43,6434
748444.37,572025.28,41.44,6434
748444.75,572023.0,41.87,6434
748445.13,572020.72,41.94,6434
748445.52,572018.37,41.86,6434
748445.91,572016.03,41.93,6434
748439.6,572045.18,41.39,6434
748439.98,572042.89,41.5,6434
748440.35,572040.67,41.52,6434
748440.73,572038.37,41.480000000000004,6434
748441.14,572035.93,41.5,6434
748441.53,572033.6,41.56,6434
748441.91,572031.3,41.44,6434
748442.31,572028.91,41.4,6434
748442.7000000001,572026.59,41.45,6434
748443.0700000001,572024.36,41.38,6434
748443.43,572022.18,41.84,6434
748443.8200000001,572019.8200000001,41.84,6434
748444.22,572017.4,41.88,6434
748444.6,572015.17,41.9,6434
748439.71,572032.72,41.56,6434
748440.11,572030.29,41.47,6434
748440.5,572027.97,41.53,6434
748440.89,572025.64,41.43,6434
748441.29,572023.24,41.43,6434
748441.65,572021.05,41.84,6434
748442.02,572018.86,41.89,6434
748442.4,572016.54,41.89,6434
748442.81,572014.13,41.82,6434
748439.66,572022.21,41.36,6434
748440.02,572020.0700000001,41.67,6434
748440.41,572017.6900000001,41.92,6434
748440.79,572015.4400000001,41.89,6434
748441.17,572013.13,41.82,6434
748439.47,572016.83,41.83,6434
748439.85,572014.52,41.83,6434
748440.25,572012.12,41.85,6434
748439.36,572027.8200000001,41.550000000000004,6434
748439.6,572030.4400000001,41.52,6434
748439.81,572032.78,41.52,6434
748440.04,572035.3200000001,41.59,6434
748440.25,572037.74,41.54,6434
748440.47,572040.1900000001,41.54,6434
748440.6900000001,572042.5700000001,41.47,6434
748440.92,572045.16,41.43,6434
748441.14,572047.67,41.47,6434
748441.37,572050.18,41.35,6434
748441.59,572052.65,41.35,6434
748441.81,572055.11,41.4,6434
748442.0,572057.33,41.77,6434
748442.22,572059.76,41.76,6434
748442.4400000001,572062.26,41.78,6434
748439.2000000001,572055.65,41.87,6434
748439.42,572058.21,41.92,6434
748439.63,572060.6,41.81,6434
748441.41,572014.1,41.76,6434
748441.62,572016.42,41.86,6434
748441.83,572018.8200000001,41.88,6434
748442.05,572021.22,41.86,6434
748442.28,572023.99,41.4,6434
748442.5,572026.43,41.42,6434
748442.72,572028.87,41.5,6434
748442.9400000001,572031.33,41.550000000000004,6434
748443.16,572033.78,41.52,6434
748443.38,572036.1900000001,41.480000000000004,6434
748443.6,572038.62,41.46,6434
748443.8200000001,572041.12,41.53,6434
748444.05,572043.68,41.49,6434
748444.27,572046.09,41.4,6434
748444.5,572048.71,41.38,6434
748444.71,572051.0700000001,41.37,6434
748444.9400000001,572053.53,41.32,6434
748445.15,572056.0,41.22,6434
748445.36,572058.37,41.68,6434
748445.59,572060.87,41.61,6434
748445.81,572063.3200000001,41.660000000000004,6434
748446.03,572065.85,41.62,6434
748440.02,572014.5,41.88,6434
748440.24,572016.99,41.86,6434
748440.47,572019.48,41.93,6434
748440.6900000001,572022.08,41.44,6434
748440.91,572024.63,41.44,6434
748441.12,572026.98,41.52,6434
748441.34,572029.4400000001,41.46,6434
748441.55,572031.77,41.56,6434
748441.78,572034.34,41.59,6434
748442.01,572036.83,41.56,6434
748442.23,572039.24,41.59,6434
748442.46,572041.83,41.51,6434
748442.67,572044.26,41.52,6434
748442.89,572046.63,41.480000000000004,6434
748443.11,572049.15,41.36,6434
748443.34,572051.66,41.4,6434
748443.5700000001,572054.27,41.29,6434
748443.77,572056.5700000001,41.47,6434
748443.99,572059.03,41.74,6434
748444.2000000001,572061.41,41.76,6434
748444.42,572063.81,41.86,6434
748444.65,572028.37,41.5,6434
748444.88,572030.93,41.49,6434
748445.1,572033.37,41.53,6434
748445.3200000001,572035.84,41.53,6434
748445.55,572038.31,41.6,6434
748445.76,572040.78,41.57,6434
748445.98,572043.14,41.57,6434
748446.2000000001,572045.66,41.44,6434
748446.43,572048.17,41.45,6434
748446.66,572050.73,41.51,6434
748446.87,572053.15,41.33,6434
748447.11,572055.83,41.17,6434
748447.3200000001,572058.22,41.19,6434
748447.52,572060.4,41.68,6434
748447.74,572062.86,41.64,6434
748447.97,572065.4,41.67,6434
748448.1900000001,572067.9400000001,41.730000000000004,6434
748443.56,572016.0700000001,41.93,6434
748443.77,572018.38,41.99,6434
748444.0,572020.96,42.0,6434
748444.22,572023.53,41.57,6434
748444.4400000001,572025.99,41.44,6434
748445.9400000001,572017.31,41.88,6434
748446.17,572019.86,41.910000000000004,6434
748446.38,572022.36,41.94,6434
748446.6,572024.79,41.800000000000004,6434
748446.83,572027.48,41.47,6434
748448.41,572018.96,41.94,6434
748448.62,572021.33,41.93,6434
748448.83,572023.8,41.92,6434
748449.05,572026.27,41.910000000000004,6434
748449.29,572029.01,41.52,6434
748449.51,572031.4,41.47,6434
748449.74,572033.96,41.51,6434
748449.9500000001,572036.33,41.49,6434
748450.17,572038.79,41.42,6434
748450.38,572041.21,41.46,6434
748450.62,572043.8,41.39,6434
748450.84,572046.27,41.34,6434
748451.06,572048.75,41.38,6434
748451.29,572051.26,41.36,6434
748451.51,572053.73,41.26,6434
748451.72,572056.15,41.18,6434
748451.9400000001,572058.68,41.08,6434
748452.16,572061.21,41.06,6434
748452.38,572063.53,41.54,6434
748452.59,572065.96,41.47,6434
748452.83,572068.55,41.51,6434
748453.05,572071.02,41.32,6434
748447.05,572029.91,41.480000000000004,6434
748447.26,572032.26,41.45,6434
748447.48,572034.7000000001,41.5,6434
748447.71,572037.2000000001,41.550000000000004,6434
748447.9400000001,572039.78,41.51,6434
748448.15,572042.18,41.410000000000004,6434
748448.38,572044.77,41.43,6434
748448.6,572047.14,41.43,6434
748448.8200000001,572049.62,41.36,6434
748449.03,572052.01,41.37,6434
748449.27,572054.67,41.17,6434
748449.49,572057.21,41.15,6434
748449.71,572059.63,41.12,6434
748449.92,572061.9400000001,41.59,6434
748450.14,572064.42,41.6,6434
748450.35,572066.79,41.56,6434
748450.56,572020.49,41.800000000000004,6434
748450.77,572022.93,41.88,6434
748450.99,572025.34,41.89,6434
748451.2000000001,572027.78,41.84,6434
748451.43,572030.41,41.38,6434
748451.66,572032.87,41.38,6434
748451.89,572035.49,41.37,6434
748452.1,572037.87,41.36,6434
748452.33,572040.43,41.31,6434
748452.55,572042.8200000001,41.29,6434
748452.77,572045.26,41.37,6434
748452.99,572047.6900000001,41.25,6434
748453.21,572050.23,41.27,6434
748453.4400000001,572052.8,41.17,6434
748453.66,572055.27,41.160000000000004,6434
748453.88,572057.83,41.03,6434
748454.1,572060.3200000001,40.95,6434
748454.3200000001,572062.73,40.980000000000004,6434
748454.53,572065.0,41.37,6434
748454.75,572067.5,41.32,6434
748454.99,572070.12,41.26,6434
748455.21,572072.58,41.22,6434
748454.63,572024.02,41.9,6434
748454.84,572026.42,41.9,6434
748455.0700000001,572028.93,41.910000000000004,6434
748455.3200000001,572031.78,41.34,6434
748455.53,572034.13,41.35,6434
748455.76,572036.73,41.29,6434
748455.98,572039.09,41.34,6434
748456.2000000001,572041.55,41.300000000000004,6434
748456.41,572043.92,41.29,6434
748456.64,572046.47,41.31,6434
748456.87,572049.0700000001,41.26,6434
748457.09,572051.47,41.2,6434
748457.3200000001,572054.09,41.09,6434
748457.53,572056.51,41.0,6434
748457.75,572058.99,41.01,6434
748457.96,572061.34,41.0,6434
748458.2000000001,572064.03,40.84,6434
748452.7000000001,572022.31,41.87,6434
748452.93,572024.85,41.95,6434
748453.14,572027.23,41.89,6434
748453.39,572029.99,41.47,6434
748453.6,572032.42,41.38,6434
748453.8200000001,572034.86,41.38,6434
748454.04,572037.24,41.35,6434
748454.26,572039.78,41.35,6434
748454.49,572042.29,41.4,6434
748454.71,572044.76,41.35,6434
748454.93,572047.23,41.35,6434
748455.16,572049.7000000001,41.31,6434
748455.38,572052.17,41.18,6434
748455.59,572054.58,41.2,6434
748455.81,572057.17,41.050000000000004,6434
748456.05,572059.78,41.050000000000004,6434
748456.26,572062.16,41.04,6434
748456.5,572064.81,40.87,6434
748456.7000000001,572067.01,41.31,6434
748456.92,572069.48,41.29,6434
748457.14,572071.9,41.22,6434
748458.43,572066.52,40.9,6434
748458.64,572068.85,41.15,6434
748458.87,572071.38,41.1,6434
748456.55,572025.73,41.85,6434
748456.77,572028.13,41.910000000000004,6434
748456.98,572030.53,41.94,6434
748457.21,572033.16,41.33,6434
748457.4500000001,572035.76,41.35,6434
748457.67,572038.31,41.25,6434
748457.89,572040.6900000001,41.300000000000004,6434
748458.11,572043.2000000001,41.32,6434
748458.34,572045.66,41.29,6434
748458.55,572048.04,41.300000000000004,6434
748458.77,572050.52,41.24,6434
748459.0,572053.0700000001,41.08,6434
748459.23,572055.68,41.09,6434
748459.4400000001,572058.0700000001,41.03,6434
748459.67,572060.71,40.88,6434
748459.89,572063.15,40.88,6434
748460.11,572065.61,40.85,6434
748460.3200000001,572067.97,40.88,6434
748462.1900000001,572062.42,40.75,6434
748462.41,572064.87,40.730000000000004,6434
748462.64,572067.42,40.62,6434
748461.71,572029.01,41.78,6434
748461.9400000001,572031.6,41.77,6434
748462.17,572034.15,41.75,6434
748462.4,572036.76,41.230000000000004,6434
748459.0700000001,572027.36,41.87,6434
748459.29,572029.8,41.85,6434
748459.51,572032.31,41.78,6434
748459.75,572035.02,41.300000000000004,6434
748459.97,572037.43,41.230000000000004,6434
748460.18,572039.87,41.15,6434
748460.41,572042.41,41.15,6434
748460.64,572044.9500000001,41.19,6434
748460.85,572047.34,41.13,6434
748461.08,572049.9,41.13,6434
748461.3,572052.3200000001,41.09,6434
748461.52,572054.8200000001,41.04,6434
748461.73,572057.22,40.94,6434
748461.96,572059.83,40.9,6434
748462.63,572039.31,41.19,6434
748462.85,572041.77,41.08,6434
748463.0700000001,572044.24,41.04,6434
748463.28,572046.55,41.1,6434
748463.52,572049.16,41.04,6434
748463.74,572051.72,40.99,6434
748463.96,572054.14,40.99,6434
748464.18,572056.66,40.99,6434
748464.4,572059.15,40.97,6434
748464.62,572061.62,40.800000000000004,6434
748464.84,572064.11,40.67,6434
748463.78,572030.83,41.730000000000004,6434
748463.99,572033.21,41.62,6434
748464.21,572035.64,41.67,6434
748464.4500000001,572038.4400000001,41.1,6434
748464.6900000001,572040.98,41.11,6434
748464.9,572043.42,40.97,6434
748465.14,572046.0,40.96,6434
748465.35,572048.37,41.0,6434
748465.5700000001,572050.79,41.01,6434
748465.79,572053.25,40.88,6434
748466.02,572055.81,40.96,6434
748466.24,572058.37,40.84,6434
748466.46,572060.85,40.730000000000004,6434
748466.6900000001,572063.41,40.61,6434
748465.37,572030.34,41.62,6434
748465.58,572032.72,41.59,6434
748465.81,572035.25,41.69,6434
748466.03,572037.6900000001,41.51,6434
748466.26,572040.35,41.02,6434
748466.48,572042.78,41.01,6434
748466.71,572045.38,40.95,6434
748466.9400000001,572047.83,40.94,6434
748467.16,572050.3200000001,40.97,6434
748467.39,572052.84,40.92,6434
748467.6,572055.28,40.88,6434
748467.81,572057.7000000001,40.82,6434
748468.04,572060.22,40.72,6434
748468.27,572062.75,40.71,6434
748469.9400000001,572059.88,40.72,6434
748467.47,572032.18,41.63,6434
748467.7000000001,572034.7000000001,41.61,6434
748467.93,572037.3,41.52,6434
748468.15,572039.79,41.21,6434
748468.39,572042.51,40.980000000000004,6434
748468.61,572044.93,40.89,6434
748468.8200000001,572047.3200000001,40.95,6434
748469.04,572049.73,40.96,6434
748469.27,572052.35,40.87,6434
748469.5,572054.84,40.85,6434
748469.71,572057.28,40.86,6434
748470.17,572034.25,41.57,6434
748470.39,572036.74,41.51,6434
748470.61,572039.13,41.42,6434
748470.85,572041.87,41.08,6434
748471.08,572044.49,40.83,6434
748471.3,572046.91,40.81,6434
748471.52,572049.4,40.89,6434
748471.75,572051.9,40.81,6434
748471.96,572054.29,40.79,6434
748472.17,572056.73,40.81,6434
748472.4,572059.29,40.74,6434
748474.16,572033.22,40.95,6434
748474.59,572038.01,41.33,6434
748474.8200000001,572040.49,41.34,6434
748472.68,572036.02,41.4,6434
748472.91,572038.6,41.34,6434
748473.13,572040.98,41.39,6434
748473.36,572043.67,40.81,6434
748473.58,572046.0700000001,40.77,6434
748473.81,572048.6900000001,40.7,6434
748474.04,572051.21,40.68,6434
748474.26,572053.65,40.64,6434
748474.48,572056.23,40.480000000000004,6434
748476.1900000001,572038.06,41.26,6434
748476.4,572040.47,41.15,6434
748476.63,572042.96,41.17,6434
748476.86,572045.53,40.980000000000004,6434
748475.04,572043.03,41.21,6434
748475.28,572045.73,40.76,6434
748475.51,572048.2000000001,40.61,6434
748475.72,572050.59,40.64,6434
748475.9400000001,572053.1,40.57,6434
748476.17,572055.62,40.52,6434
748477.31,572050.62,40.61,6434
748477.55,572053.26,40.51,6434
748477.76,572055.61,40.54,6434
748478.54,572040.66,41.230000000000004,6434
748478.77,572043.1900000001,41.19,6434
748478.99,572045.67,41.19,6434
748479.22,572048.27,40.65,6434
748479.4400000001,572050.77,40.56,6434
748479.67,572053.3200000001,40.53,6434
748477.1,572048.25,40.59,6434
748481.3200000001,572042.68,41.04,6434
748481.56,572045.3,40.99,6434
748481.77,572047.6900000001,40.96,6434
748482.02,572050.53,40.38,6434
748483.62,572042.68,40.88,6434
748483.84,572045.13,40.87,6434
748484.06,572047.53,40.82,6434
748484.29,572050.12,40.87,6434
748260.12,572133.3200000001,41.51,6434
748258.3,572131.86,41.46,6434
748258.7000000001,572129.51,41.17,6434
748259.0700000001,572127.3,41.18,6434
748259.46,572124.99,41.06,6434
748256.72,572130.31,41.12,6434
748257.11,572128.02,41.02,6434
748257.5,572125.74,40.99,6434
748257.89,572123.42,40.92,6434
748254.86,572128.64,40.9,6434
748255.25,572126.33,40.86,6434
748255.66,572123.9,40.81,6434
748256.06,572121.56,40.25,6434
748252.34,572128.61,40.85,6434
748252.75,572126.23,40.2,6434
748251.47,572127.08,40.32,6434
748251.67,572129.17,41.0,6434
748253.77,572124.0700000001,40.29,6434
748253.99,572126.3200000001,40.87,6434
748254.21,572128.8,40.95,6434
748257.0700000001,572121.02,40.37,6434
748257.29,572123.34,40.92,6434
748257.51,572125.74,40.980000000000004,6434
748257.75,572128.31,41.12,6434
748257.96,572130.68,41.25,6434
748258.18,572132.93,41.75,6434
748255.66,572121.39,40.24,6434
748255.87,572123.56,40.89,6434
748256.09,572125.93,40.980000000000004,6434
748256.31,572128.38,41.1,6434
748256.54,572130.87,41.26,6434
748259.1900000001,572123.33,41.31,6434
748259.41,572125.78,41.21,6434
748259.65,572128.35,41.36,6434
748259.88,572130.89,41.4,6434
748260.1,572133.33,41.51,6434
748339.04,572183.97,42.65,6434
748339.42,572181.72,42.64,6434
748336.22,572187.3200000001,42.63,6434
748336.59,572185.13,42.64,6434
748336.97,572182.87,42.67,6434
748337.34,572180.68,42.67,6434
748334.4500000001,572186.2000000001,42.61,6434
748334.83,572183.96,42.67,6434
748335.21,572181.6900000001,42.68,6434
748335.59,572179.43,42.69,6434
748333.17,572185.28,42.67,6434
748333.56,572182.98,42.63,6434
748333.96,572180.59,42.730000000000004,6434
748334.3200000001,572178.42,42.76,6434
748331.6,572183.9500000001,42.68,6434
748331.98,572181.68,42.78,6434
748332.35,572179.48,42.81,6434
748332.73,572177.18,42.83,6434
748329.92,572182.91,42.72,6434
748330.3200000001,572180.5700000001,42.72,6434
748330.68,572178.38,42.77,6434
748331.06,572176.14,42.88,6434
748328.42,572181.66,42.77,6434
748328.79,572179.39,42.86,6434
748329.17,572177.15,42.86,6434
748329.55,572174.86,42.95,6434
748326.4,572182.49,43.45,6434
748326.8,572180.17,42.84,6434
748327.18,572177.93,42.89,6434
748327.5700000001,572175.6,42.95,6434
748327.9500000001,572173.29,43.13,6434
748324.4500000001,572181.0,43.4,6434
748324.87,572178.56,42.99,6434
748325.25,572176.31,42.97,6434
748325.62,572174.1,43.01,6434
748325.98,572171.92,43.11,6434
748323.3200000001,572177.0700000001,43.03,6434
748323.6900000001,572174.89,43.050000000000004,6434
748324.08,572172.54,43.09,6434
748324.4400000001,572170.38,43.37,6434
748321.72,572178.21,43.14,6434
748322.09,572175.99,43.03,6434
748322.49,572173.63,43.11,6434
748322.88,572171.31,43.1,6434
748320.26,572176.36,43.17,6434
748320.65,572174.06,43.12,6434
748321.01,572171.9,43.15,6434
748321.38,572169.66,43.24,6434
748318.21,572174.26,43.12,6434
748318.5700000001,572172.1,43.22,6434
748318.97,572169.76,43.24,6434
748319.34,572167.55,43.31,6434
748316.25,572172.88,43.19,6434
748316.64,572170.52,43.31,6434
748317.03,572168.18,43.27,6434
748317.4,572165.96,43.39,6434
748314.9400000001,572171.31,43.300000000000004,6434
748315.3200000001,572169.06,43.31,6434
748315.68,572166.9,43.39,6434
748316.0700000001,572164.56,43.53,6434
748313.36,572171.96,43.34,6434
748313.74,572169.7000000001,43.33,6434
748314.12,572167.4400000001,43.36,6434
748314.5,572165.17,43.37,6434
748311.4,572170.04,43.37,6434
748311.78,572167.78,43.38,6434
748312.18,572165.42,43.43,6434
748309.31,572168.24,43.4,6434
748309.6900000001,572165.9500000001,43.37,6434
748307.5,572166.77,43.52,6434
748307.9,572164.41,43.49,6434
748305.77,572167.8200000001,43.71,6434
748306.18,572165.39,43.44,6434
748304.14,572166.54,44.28,6434
748304.5700000001,572164.08,43.44,6434
748301.75,572163.76,43.61,6434
748303.5700000001,572165.22,43.65,6434
748305.53,572163.96,43.49,6434
748305.76,572166.58,43.480000000000004,6434
748307.98,572165.38,43.52,6434
748308.21,572167.9500000001,43.46,6434
748309.9,572164.21,43.5,6434
748310.14,572166.89,43.45,6434
748310.36,572169.37,43.35,6434
748312.1,572165.83,43.45,6434
748312.33,572168.41,43.44,6434
748312.5700000001,572171.02,43.36,6434
748313.99,572164.61,43.28,6434
748314.22,572167.11,43.34,6434
748314.4400000001,572169.5700000001,43.28,6434
748314.68,572172.22,43.29,6434
748315.78,572163.67,43.43,6434
748316.0,572166.16,43.42,6434
748316.24,572168.79,43.32,6434
748316.47,572171.35,43.32,6434
748316.6900000001,572173.79,43.28,6434
748318.9400000001,572175.75,43.160000000000004,6434
748318.23,572167.93,43.38,6434
748318.47,572170.6,43.19,6434
748318.7000000001,572173.09,43.21,6434
748320.99,572169.76,43.32,6434
748321.22,572172.3,43.2,6434
748321.4500000001,572174.9400000001,43.09,6434
748321.6900000001,572177.63,43.12,6434
748322.98,572168.8,43.32,6434
748323.22,572171.53,43.15,6434
748323.4500000001,572174.03,43.12,6434
748323.68,572176.61,43.03,6434
748323.9,572179.04,43.0,6434
748324.75,572173.27,43.19,6434
748324.97,572175.8,43.07,6434
748325.22,572178.52,42.9,6434
748325.4400000001,572180.93,43.01,6434
748326.3200000001,572172.67,43.04,6434
748326.55,572175.21,42.88,6434
748326.79,572177.8200000001,42.93,6434
748327.02,572180.47,42.85,6434
748327.24,572182.78,43.26,6434
748329.04,572175.01,42.94,6434
748329.27,572177.5700000001,42.95,6434
748329.5,572180.08,42.83,6434
748329.73,572182.58,42.87,6434
748331.7000000001,572176.96,42.76,6434
748331.92,572179.4500000001,42.81,6434
748332.16,572182.08,42.72,6434
748332.39,572184.6,42.730000000000004,6434
748332.6,572186.89,43.1,6434
748333.62,572178.55,42.85,6434
748333.86,572181.24,42.74,6434
748334.1,572183.87,42.77,6434
748334.3200000001,572186.37,42.63,6434
748334.56,572189.01,42.72,6434
748335.39,572180.88,42.68,6434
748335.61,572183.43,42.6,6434
748335.84,572185.92,42.550000000000004,6434
748337.37,572180.59,42.800000000000004,6434
748337.6,572183.11,42.71,6434
748337.85,572185.81,42.54,6434
748339.99,572182.7000000001,42.4,6434
748310.06,572163.78,43.43,6434
748312.56,572163.17,43.4,6434
748310.4500000001,572161.43,43.42,6434
748308.27,572162.2000000001,43.480000000000004,6434
748308.65,572159.93,43.51,6434
748306.5700000001,572163.09,43.480000000000004,6434
748306.9500000001,572160.81,43.46,6434
748307.33,572158.55,43.57,6434
748304.9400000001,572161.86,43.480000000000004,6434
748305.33,572159.55,43.5,6434
748305.72,572157.1900000001,43.67,6434
748302.55,572162.9400000001,43.42,6434
748302.93,572160.66,43.49,6434
748303.3,572158.46,43.49,6434
748303.68,572156.24,43.5,6434
748300.66,572161.6900000001,43.36,6434
748301.03,572159.49,43.44,6434
748301.42,572157.14,43.49,6434
748301.8,572154.93,43.49,6434
748298.87,572160.48,43.52,6434
748299.27,572158.09,43.43,6434
748299.65,572155.8200000001,43.480000000000004,6434
748300.03,572153.56,43.52,6434
