589206.33,455671.205,20.794,6527
589209.267,455671.67100000003,20.62,6527
589212.243,455672.137,20.509,6527
589194.512,455668.115,21.35,6527
589197.488,455668.58,21.150000000000002,6527
589200.322,455669.021,20.999,6527
589203.272,455669.48600000003,20.887,6527
589206.133,455669.94,20.745,6527
589209.148,455670.405,20.591,6527
589212.058,455670.858,20.473,6527
589194.726,455667.871,21.297,6527
589197.8200000001,455668.362,21.153,6527
589200.806,455668.827,21.025000000000002,6527
589203.644,455669.268,20.91,6527
589206.567,455669.734,20.706,6527
589209.53,455670.196,20.63,6527
589212.466,455670.662,20.509,6527
589200.05,455667.946,20.949,6527
589203.0750000001,455668.424,20.841,6527
589206.116,455668.89900000003,20.761,6527
589209.013,455669.352,20.633,6527
589211.812,455669.793,20.505,6527
589190.664,455685.683,21.227,6527
589193.702,455686.162,21.178,6527
589196.806,455686.653,21.073,6527
589191.844,455682.72000000003,21.227,6527
589194.666,455683.16000000003,21.244,6527
589197.681,455683.639,21.067,6527
589200.617,455684.102,21.067,6527
589203.452,455684.542,20.922,6527
589206.5920000001,455685.033,20.886,6527
589209.492,455685.48600000003,20.705000000000002,6527
589212.406,455685.939,20.554000000000002,6527
589215.316,455686.405,20.485,6527
589218.137,455686.84500000003,20.324,6527
589190.594,455684.286,21.296,6527
589193.517,455684.75200000004,21.254,6527
589196.48,455685.204,21.158,6527
589199.508,455685.683,21.096,6527
589202.4450000001,455686.14900000003,20.916,6527
589205.332,455686.602,20.847,6527
589191.935,455680.952,21.283,6527
589194.863,455681.405,21.240000000000002,6527
589197.618,455681.832,21.076,6527
589200.66,455682.311,21.044,6527
589203.389,455682.734,20.971,6527
589206.405,455683.213,20.831,6527
589209.367,455683.678,20.768,6527
589212.149,455684.106,20.601,6527
589215.2440000001,455684.597,20.46,6527
589218.193,455685.063,20.338,6527
589192.24,455681.95,21.309,6527
589195.15,455682.416,21.191,6527
589198.008,455682.853,21.231,6527
589200.948,455683.319,21.063,6527
589203.937,455683.784,20.942,6527
589206.8200000001,455684.237,20.925,6527
589209.796,455684.70300000004,20.724,6527
589212.851,455685.181,20.596,6527
589215.7220000001,455685.635,20.485,6527
589191.4990000001,455679.92600000004,21.293,6527
589194.488,455680.405,21.211000000000002,6527
589197.385,455680.854,21.240000000000002,6527
589200.3250000001,455681.31,21.044,6527
589203.196,455681.764,20.929000000000002,6527
589206.096,455682.217,20.768,6527
589208.931,455682.67,20.662,6527
589211.831,455683.123,20.498,6527
589214.856,455683.588,20.406,6527
589217.654,455684.029,20.288,6527
589190.992,455677.389,21.365000000000002,6527
589194.03,455677.867,21.28,6527
589196.8910000001,455678.32,21.132,6527
589199.7880000001,455678.773,21.116,6527
589202.764,455679.239,20.945,6527
589205.74,455679.705,20.775000000000002,6527
589208.6140000001,455680.158,20.718,6527
589211.603,455680.624,20.596,6527
589214.477,455681.077,20.495,6527
589217.311,455681.517,20.396,6527
589191.25,455678.3,21.303,6527
589194.032,455678.74,21.283,6527
589197.126,455679.231,21.122,6527
589200.01,455679.681,21.096,6527
589202.91,455680.13800000004,20.919,6527
589205.974,455680.61600000004,20.768,6527
589208.858,455681.066,20.757,6527
589211.604,455681.493,20.609,6527
589214.554,455681.95900000003,20.504,6527
589217.352,455682.386,20.36,6527
589193.948,455673.58900000004,21.297,6527
589196.783,455674.029,21.173000000000002,6527
589199.811,455674.507,21.123,6527
589202.672,455674.96,20.946,6527
589205.582,455675.413,20.797,6527
589208.637,455675.892,20.666,6527
589211.6,455676.354,20.584,6527
589214.447,455676.811,20.407,6527
589192.343,455675.619,21.313,6527
589195.394,455676.094,21.293,6527
589198.179,455676.521,21.119,6527
589201.231,455677.01300000004,20.994,6527
589204.22,455677.479,20.889,6527
589207.209,455677.944,20.728,6527
589210.004,455678.385,20.649,6527
589213.019,455678.863,20.482,6527
589215.919,455679.316,20.308,6527
589191.1950000001,455676.91500000004,21.313,6527
589194.246,455677.393,21.286,6527
589197.117,455677.833,21.194,6527
589200.221,455678.325,21.063,6527
589203.019,455678.765,21.004,6527
589205.903,455679.215,20.906,6527
589208.905,455679.684,20.698,6527
589211.806,455680.15,20.531,6527
589214.781,455680.61600000004,20.36,6527
589203.909,455673.404,20.941,6527
589206.806,455673.857,20.736,6527
589209.68,455674.311,20.664,6527
589212.735,455674.789,20.52,6527
589200.795,455673.337,21.048000000000002,6527
589203.665,455673.79000000004,20.933,6527
589206.667,455674.255,20.719,6527
589209.541,455674.708,20.591,6527
589212.491,455675.174,20.496,6527
589209.626,455673.402,20.641000000000002,6527
589212.5,455673.855,20.539,6527
589220.586,455686.43700000003,20.269000000000002,6527
589221.3640000001,455685.205,20.354,6527
589218.559,455686.08400000003,20.364,6527
589219.194,455684.63300000003,20.295,6527
589218.769,455685.65,20.266000000000002,6527
589221.578,455686.16500000004,20.299,6527
589218.633,455683.92100000003,20.316,6527
589221.492,455684.446,20.677,6527
589221.556,455686.436,20.222,6527
589219.875,455685.59500000003,20.163,6527
589218.704,455684.47000000003,20.251,6527
589221.13,455685.516,20.177,6527
589218.546,455686.075,20.321,6527
589221.611,455686.553,20.193,6527
589209.859,455664.976,20.839000000000002,6527
589207.209,455665.821,20.649,6527
589204.47,455666.686,20.822,6527
589201.702,455667.552,21.003,6527
589211.459,455666.398,21.744,6527
589208.881,455667.223,20.635,6527
589206.432,455662.977,20.691,6527
589203.6900000001,455663.842,20.836000000000002,6527
589200.846,455664.734,20.990000000000002,6527
589198.042,455665.626,21.134,6527
589195.353,455666.469,21.252,6527
589192.473,455667.387,21.400000000000002,6527
589207.883,455663.651,20.557000000000002,6527
589205.18,455664.507,20.786,6527
589202.337,455665.39900000003,20.947,6527
589199.66,455666.238,21.18,6527
589196.905,455667.11600000004,21.183,6527
589205.281,455659.689,20.691,6527
589202.474,455660.581,20.842,6527
589199.529,455661.5,20.918,6527
589196.79,455662.365,21.131,6527
589194.087,455663.217,21.256,6527
589191.178,455664.136,21.403,6527
589208.087,455660.917,21.049,6527
589205.198,455661.825,20.747,6527
589202.571,455662.654,20.918,6527
589199.7660000001,455663.533,21.052,6527
589196.985,455664.412,21.223,6527
589194.1190000001,455665.317,21.331,6527
589191.3150000001,455666.20900000003,21.495,6527
589203.411,455657.39900000003,20.878,6527
589200.544,455658.304,21.039,6527
589197.8420000001,455659.156,21.124,6527
589195.0380000001,455660.048,21.236,6527
589192.207,455660.943,21.272000000000002,6527
589203.865,455658.167,20.777,6527
589200.956,455659.096,20.904,6527
589198.319,455659.925,21.095,6527
589195.41,455660.843,21.259,6527
589192.491,455661.759,21.433,6527
589191.2710000001,455657.152,21.37,6527
589199.348,455656.857,21.039,6527
589196.721,455657.686,21.144000000000002,6527
589193.881,455658.581,21.17,6527
589191.188,455659.433,21.344,6527
589191.9130000001,455666.429,21.375,6527
589194.774,455666.957,21.28,6527
589197.557,455667.463,21.169,6527
589192.356,455665.544,21.388,6527
589195.142,455666.059,21.251,6527
589198.04,455666.591,21.116,6527
589201.118,455667.158,21.103,6527
589192.584,455663.91500000004,21.313,6527
589195.366,455664.434,21.192,6527
589198.214,455664.949,21.106,6527
589201.1900000001,455665.49,20.998,6527
589203.973,455666.01,20.841,6527
589206.936,455666.55100000004,20.752,6527
589209.912,455667.109,20.575,6527
589191.2660000001,455661.291,21.418,6527
589194.025,455661.797,21.29,6527
589196.949,455662.33900000004,21.116,6527
589199.784,455662.858,20.949,6527
589202.553,455663.36,20.857,6527
589205.454,455663.891,20.719,6527
589208.201,455664.39400000003,20.614,6527
589192.693,455659.56,21.339000000000002,6527
589195.6950000001,455660.114,21.133,6527
589198.517,455660.63,21.093,6527
589201.415,455661.175,20.896,6527
589204.276,455661.69,20.791,6527
589207.023,455662.197,20.644000000000002,6527
589191.844,455658.101,21.316,6527
589194.692,455658.63,21.261,6527
589197.475,455659.136,21.087,6527
589200.451,455659.69,20.985,6527
589203.375,455660.219,20.847,6527
589206.213,455660.751,20.611,6527
589199.022,455657.719,20.998,6527
589201.807,455658.226,20.798000000000002,6527
589204.692,455658.767,20.762,6527
589193.069,455656.624,21.343,6527
589196.085,455657.178,21.215,6527
589205.078,455656.353,21.116,6527
589208.768,455665.288,20.674,6527
589205.99,455666.272,20.789,6527
589203.069,455667.293,20.901,6527
589208.197,455667.047,20.651,6527
589206.839,455663.678,20.772000000000002,6527
589203.934,455664.702,20.798000000000002,6527
589201.091,455665.70900000003,20.956,6527
589198.297,455666.689,21.183,6527
589207.562,455665.088,20.693,6527
589204.821,455666.056,20.818,6527
589202.109,455667.0,20.89,6527
589203.481,455660.14,20.897000000000002,6527
589200.819,455661.083,21.008,6527
589198.0380000001,455662.054,21.107,6527
589195.107,455663.088,21.186,6527
589192.405,455664.041,21.35,6527
589204.115,455661.918,20.857,6527
589201.246,455662.929,20.946,6527
589198.583,455663.859,21.07,6527
589195.599,455664.916,21.281,6527
589192.756,455665.91000000003,21.439,6527
589190.058,455666.87,21.373,6527
589200.965,455658.917,20.933,6527
589198.188,455659.887,21.080000000000002,6527
589195.371,455660.881,21.159,6527
589192.705,455661.81200000003,21.321,6527
589190.003,455662.76900000003,21.495,6527
589204.735,455658.817,20.795,6527
589201.804,455659.837,20.897000000000002,6527
589199.226,455660.74100000004,21.129,6527
589196.475,455661.712,21.175,6527
589193.658,455662.705,21.281,6527
589190.956,455663.64900000003,21.452,6527
589196.6,455656.572,21.123,6527
589193.885,455657.516,21.195,6527
589191.003,455658.536,21.366,6527
589200.716,455656.716,20.88,6527
589197.909,455657.697,21.031,6527
589195.017,455658.717,21.149,6527
589192.289,455659.67100000003,21.353,6527
589191.265,455656.651,21.356,6527
589195.33,455656.51,21.231,6527
589192.461,455657.52,21.267,6527
589191.434,455667.623,21.333000000000002,6527
589191.957,455667.443,21.330000000000002,6527
589191.339,455666.574,21.35,6527
589194.252,455667.04000000004,21.264,6527
589197.238,455667.505,21.143,6527
589190.047,455664.028,21.455000000000002,6527
589192.908,455664.481,21.284,6527
589195.871,455664.943,21.218,6527
589198.63,455665.371,21.104,6527
589201.632,455665.853,20.881,6527
589204.542,455666.303,20.781,6527
589207.376,455666.743,20.666,6527
589210.4940000001,455667.234,20.617,6527
589190.291,455662.284,21.479,6527
589193.231,455662.737,21.308,6527
589196.128,455663.19,21.151,6527
589198.976,455663.643,21.055,6527
589201.876,455664.096,20.885,6527
589204.711,455664.549,20.795,6527
589207.647,455665.00200000004,20.631,6527
589191.563,455661.87,21.422,6527
589194.631,455662.348,21.150000000000002,6527
589197.479,455662.80100000004,21.11,6527
589200.517,455663.276,21.038,6527
589203.263,455663.707,20.887,6527
589206.0970000001,455664.148,20.765,6527
589209.034,455664.613,20.604,6527
589199.04,455662.487,21.111,6527
589202.0160000001,455662.95300000004,20.904,6527
589204.887,455663.406,20.779,6527
589207.721,455663.846,20.68,6527
589190.126,455661.09,21.459,6527
589193.1900000001,455661.568,21.367,6527
589196.091,455662.021,21.164,6527
589190.2880000001,455659.39900000003,21.442,6527
589193.123,455659.853,21.3,6527
589195.993,455660.306,21.222,6527
589199.061,455660.784,21.094,6527
589201.87,455661.224,20.894000000000002,6527
589204.96,455661.716,20.735,6527
589190.857,455658.142,21.334,6527
589193.806,455658.608,21.239,6527
589196.835,455659.087,21.17,6527
589199.735,455659.54000000004,20.96,6527
589202.517,455659.967,20.783,6527
589205.585,455660.45900000003,20.687,6527
589190.638,455657.694,21.445,6527
589193.68,455658.172,21.248,6527
589196.449,455658.60000000003,21.153,6527
589199.49,455659.07800000004,20.947,6527
589202.542,455659.55700000003,20.799,6527
589205.376,455660.01,20.654,6527
589192.536,455657.303,21.295,6527
589195.4990000001,455657.755,21.2,6527
589198.386,455658.212,20.993000000000002,6527
589201.27,455658.678,20.754,6527
589204.246,455659.14,20.802,6527
589197.056,455656.496,21.091,6527
589199.881,455656.93700000003,20.888,6527
589202.906,455657.41500000004,20.848,6527
589202.389,455653.647,20.816,6527
589199.761,455654.47500000003,20.937,6527
589196.777,455655.418,21.108,6527
589194.0380000001,455656.283,21.239,6527
589204.858,455655.106,21.534,6527
589202.074,455655.992,20.901,6527
589202.903,455651.681,21.164,6527
589200.1900000001,455652.537,20.901,6527
589197.488,455653.392,21.141000000000002,6527
589194.582,455654.311,21.226,6527
589191.84,455655.17600000004,21.393,6527
589199.339,455650.504,20.95,6527
589196.495,455651.396,21.072,6527
589193.806,455652.248,21.157,6527
589190.9230000001,455653.153,21.361,6527
589201.11,455651.445,20.882,6527
589198.089,455652.391,20.977,6527
589195.4230000001,455653.23,21.265,6527
589192.556,455654.135,21.315,6527
589193.76,455649.86600000004,21.13,6527
589190.89,455650.771,21.337,6527
589199.493,455645.318,21.665,6527
589196.634,455646.23,21.031,6527
589193.852,455647.108,21.251,6527
589191.061,455647.99,21.205000000000002,6527
589197.4670000001,455646.753,20.946,6527
589194.843,455647.582,21.136,6527
589192.0750000001,455648.447,21.241,6527
589196.691,455644.756,21.045,6527
589193.887,455645.648,21.251,6527
589191.158,455646.503,21.330000000000002,6527
589196.221,455640.217,21.527,6527
589193.486,455641.08900000004,21.215,6527
589190.643,455641.981,21.274,6527
589194.839,455642.84,21.054000000000002,6527
589191.996,455643.732,21.235,6527
589194.406,455640.125,21.097,6527
589191.756,455640.954,21.232,6527
589195.116,455638.556,21.52,6527
589192.377,455639.424,21.14,6527
589192.358,455637.222,21.081,6527
589190.226,455656.104,21.357,6527
589190.77,455653.732,21.452,6527
589193.527,455654.238,21.258,6527
589196.348,455654.754,21.107,6527
589199.39,455655.311,20.966,6527
589202.058,455655.80100000004,20.819,6527
589204.466,455654.266,21.36,6527
589190.334,455651.67100000003,21.383,6527
589193.1460000001,455652.19,21.245,6527
589195.964,455652.706,21.216,6527
589198.826,455653.22500000003,20.986,6527
589201.611,455653.74100000004,20.825,6527
589191.287,455651.015,21.361,6527
589194.263,455651.556,21.19,6527
589197.085,455652.075,21.056,6527
589199.907,455652.591,20.882,6527
589202.817,455653.132,21.01,6527
589189.9400000001,455649.481,21.445,6527
589192.801,455650.01300000004,21.265,6527
589195.675,455650.542,21.065,6527
589198.639,455651.083,20.979,6527
589201.461,455651.602,20.815,6527
589190.453,455646.967,21.354,6527
589193.492,455647.537,21.187,6527
589196.353,455648.052,20.974,6527
589199.175,455648.568,20.964000000000002,6527
589192.607,455645.259,21.199,6527
589195.468,455645.77400000003,21.025000000000002,6527
589198.3690000001,455646.306,20.93,6527
589191.545,455643.787,21.197,6527
589194.367,455644.303,21.148,6527
589197.264,455644.835,21.026,6527
589192.431,455642.582,21.183,6527
589195.292,455643.11100000003,21.055,6527
589198.203,455643.636,21.275000000000002,6527
589192.378,455640.195,21.154,6527
589195.1240000001,455640.702,21.02,6527
589192.417,455637.955,21.196,6527
589195.226,455638.471,21.265,6527
589194.096,455637.049,21.361,6527
589199.3640000001,455655.604,20.903,6527
589199.638,455653.706,20.986,6527
589196.861,455654.68700000003,21.117,6527
589194.08,455655.657,21.262,6527
589200.861,455654.56200000003,20.857,6527
589198.172,455655.503,21.062,6527
589197.782,455649.66000000003,20.979,6527
589194.975,455650.64400000003,21.182000000000002,6527
589192.247,455651.598,21.356,6527
589199.006,455651.518,20.98,6527
589196.366,455652.435,21.098,6527
589193.474,455653.455,21.150000000000002,6527
589190.887,455654.359,21.396,6527
589202.348,455647.098,20.867,6527
589196.829,455649.036,21.091,6527
589193.973,455650.043,21.176000000000002,6527
589191.091,455651.05,21.367,6527
589197.1900000001,455645.512,21.026,6527
589194.514,455646.456,21.109,6527
589191.557,455647.49,21.246000000000002,6527
589196.901,455647.844,20.996,6527
589194.137,455648.815,21.18,6527
589191.435,455649.768,21.331,6527
589197.39,455643.68,20.964000000000002,6527
589194.583,455644.674,21.095,6527
589191.845,455645.628,21.273,6527
589196.333,455642.465,21.007,6527
589193.569,455643.43200000003,21.164,6527
589190.765,455644.416,21.138,6527
589196.131,455643.411,21.069,6527
589193.341,455644.395,21.168,6527
589190.626,455645.33900000004,21.233,6527
589192.004,455639.556,21.187,6527
589195.3250000001,455640.686,21.138,6527
589192.64,455641.629,21.181,6527
589191.3200000001,455638.582,21.256,6527
589191.33,455655.59,21.366,6527
589194.2000000001,455656.043,21.248,6527
589191.988,455653.80700000003,21.215,6527
589194.911,455654.26,21.182000000000002,6527
589200.686,455655.18,20.877,6527
589192.036,455652.87200000003,21.281,6527
589194.91,455653.31200000003,21.127,6527
589197.886,455653.791,20.979,6527
589200.875,455654.256,20.848,6527
589192.356,455651.935,21.308,6527
589195.421,455652.42600000004,21.144000000000002,6527
589198.331,455652.879,21.065,6527
589201.323,455653.34500000003,20.79,6527
589198.875,455651.879,21.02,6527
589190.102,455650.507,21.358,6527
589193.051,455650.973,21.237000000000002,6527
589196.1680000001,455651.46400000004,21.027,6527
589190.7930000001,455649.016,21.443,6527
589193.601,455649.46,21.206,6527
589196.603,455649.92600000004,21.019000000000002,6527
589199.632,455650.404,20.868000000000002,6527
589192.046,455648.721,21.269000000000002,6527
589195.061,455649.199,21.118000000000002,6527
589197.883,455649.639,20.918,6527
589192.79,455648.09,21.344,6527
589195.558,455648.517,21.157,6527
589198.524,455648.982,20.872,6527
589190.909,455646.581,21.429000000000002,6527
589193.889,455647.05,21.242,6527
589196.596,455647.477,21.036,6527
589191.037,455645.159,21.282,6527
589193.973,455645.624,21.128,6527
589196.8740000001,455646.08,20.927,6527
589191.136,455644.135,21.239,6527
589194.112,455644.599,21.121,6527
589197.137,455645.07800000004,20.996,6527
589190.012,455642.766,21.381,6527
589192.909,455643.219,21.201,6527
589195.783,455643.672,21.076,6527
589192.897,455641.541,21.091,6527
589195.8200000001,455641.994,21.009,6527
589190.2490000001,455640.063,21.308,6527
589193.199,455640.529,21.17,6527
589191.671,455639.441,21.223,6527
589192.631,455639.068,21.223,6527
589192.201,455637.457,21.109,6527
589192.301,455635.211,21.166,6527
589190.518,455634.906,21.228,6527
589192.098,455632.928,21.458000000000002,6527
589191.393,455636.558,21.272000000000002,6527
589192.606,455635.634,21.129,6527
589191.355,455633.42100000003,21.189,6527
589195.557,455635.70300000004,22.096,6527
589191.2390000001,455633.65,21.257,6527
589194.745,455634.362,22.122,6527
589191.978,455635.352,21.236,6527
589190.763,455636.34500000003,21.147000000000002,6527
589190.67,455635.53500000003,21.275000000000002,6527
589189.9990000001,455634.052,21.213,6527
589190.926,455632.088,21.278,6527
589194.267,455632.607,22.066,6527
589192.443,455629.749,21.364,6527
589191.231,455626.83,21.247,6527
589274.129,455593.912,22.148,6527
589274.993,455591.639,22.181,6527
589272.241,455592.50800000003,22.037,6527
589278.401,455588.473,22.525000000000002,6527
589275.803,455589.305,22.335,6527
589272.861,455590.237,22.234,6527
589278.974,455587.022,22.522000000000002,6527
589276.006,455587.971,22.319,6527
589273.123,455588.87700000004,22.319,6527
589270.437,455589.732,22.273,6527
589279.965,455585.314,22.627,6527
589277.213,455586.18200000003,22.466,6527
589274.373,455587.07800000004,22.384,6527
589271.687,455587.933,22.316,6527
589268.791,455588.848,22.663,6527
589282.264,455582.757,22.581,6527
589279.539,455583.626,22.571,6527
589276.849,455584.468,22.509,6527
589274.0480000001,455585.35000000003,22.388,6527
589271.359,455586.202,22.368000000000002,6527
589268.492,455587.11100000003,22.286,6527
589282.848,455580.936,22.552,6527
589280.044,455581.815,22.657,6527
589277.279,455582.684,22.555,6527
589274.553,455583.552,22.489,6527
589271.789,455584.431,22.509,6527
589269.099,455585.276,22.401,6527
589280.731,455580.364,22.624,6527
589277.993,455581.219,22.63,6527
589275.136,455582.128,22.506,6527
589272.257,455583.033,22.483,6527
589269.5700000001,455583.889,22.489,6527
589266.665,455584.80700000003,22.421,6527
589280.635,455578.979,22.644000000000002,6527
589277.834,455579.875,22.657,6527
589275.131,455580.717,22.621000000000002,6527
589272.344,455581.612,22.473,6527
589269.513,455582.507,22.365000000000002,6527
589266.709,455583.386,22.381,6527
589280.348,455577.071,22.742,6527
589277.58,455577.95300000004,22.749,6527
589274.701,455578.859,22.709,6527
589271.952,455579.727,22.542,6527
589269.0430000001,455580.646,22.571,6527
589266.459,455581.465,22.51,6527
589280.38,455575.164,22.644000000000002,6527
589277.638,455576.016,22.765,6527
589274.8740000001,455576.898,22.716,6527
589272.047,455577.79000000004,22.627,6527
589269.36,455578.64900000003,22.522000000000002,6527
589266.415,455579.581,22.532,6527
589263.582,455580.47000000003,22.887,6527
589282.961,455573.079,22.601,6527
589280.0430000001,455574.011,22.693,6527
589277.441,455574.826,22.781,6527
589274.6410000001,455575.705,22.821,6527
589271.889,455576.587,22.66,6527
589269.225,455577.416,22.647000000000002,6527
589266.258,455578.364,22.525000000000002,6527
589263.63,455579.19,22.589000000000002,6527
589282.728,455571.889,22.529,6527
589279.986,455572.754,22.686,6527
589277.169,455573.646,22.804000000000002,6527
589274.378,455574.528,22.795,6527
589271.718,455575.37,22.768,6527
589268.914,455576.249,22.719,6527
589266.264,455577.094,22.673000000000002,6527
589263.476,455577.976,22.490000000000002,6527
589281.2490000001,455570.329,22.581,6527
589278.291,455571.261,22.722,6527
589275.588,455572.113,22.817,6527
589272.63,455573.045,22.847,6527
589269.9180000001,455573.914,22.745,6527
589267.192,455574.76900000003,22.732,6527
589264.428,455575.651,22.595,6527
589261.84,455576.466,22.586000000000002,6527
589280.859,455568.70300000004,22.609,6527
589278.003,455569.59500000003,22.717,6527
589275.261,455570.461,22.828,6527
589272.496,455571.343,22.802,6527
589269.6950000001,455572.22500000003,22.809,6527
589266.8250000001,455573.13,22.776,6527
589264.113,455573.98600000003,22.56,6527
589261.286,455574.89400000003,22.531,6527
589276.707,455568.907,22.782,6527
589273.837,455569.826,22.835,6527
589270.882,455570.745,22.822,6527
589268.334,455571.56,22.846,6527
589265.428,455572.482,22.721,6527
589262.716,455573.337,22.580000000000002,6527
589259.859,455574.243,22.875,6527
589282.328,455567.136,22.566,6527
589279.409,455568.052,22.677,6527
589282.834,455565.647,22.549,6527
589280.109,455566.515,22.586000000000002,6527
589277.275,455567.391,22.832,6527
589274.497,455568.273,22.983,6527
589271.745,455569.151,22.917,6527
589268.941,455570.034,22.855,6527
589266.153,455570.916,22.759,6527
589263.248,455571.83400000003,22.708000000000002,6527
589260.598,455572.67600000004,22.646,6527
589281.931,455563.804,22.513,6527
589279.255,455564.646,22.553,6527
589276.605,455565.488,22.589000000000002,6527
589273.712,455566.403,22.792,6527
589271.036,455567.246,22.927,6527
589268.166,455568.151,22.894000000000002,6527
589265.454,455569.01,22.776,6527
589262.689,455569.88800000004,22.672,6527
589259.747,455570.824,22.632,6527
589276.536,455563.795,22.694,6527
589273.794,455564.66000000003,22.907,6527
589271.0160000001,455565.539,22.992,6527
589268.327,455566.385,22.937,6527
589265.5750000001,455567.26300000004,22.841,6527
589262.836,455568.119,22.816,6527
589260.009,455569.027,22.724,6527
589257.251,455569.893,23.082,6527
589273.894,455563.72500000003,22.881,6527
589271.011,455564.63,23.032,6527
589268.387,455565.45900000003,23.032,6527
589265.481,455566.381,22.923000000000002,6527
589262.871,455567.20900000003,22.8,6527
589260.145,455568.07800000004,22.767,6527
589257.341,455568.96,22.731,6527
589267.128,455564.439,22.976,6527
589264.2220000001,455565.348,22.882,6527
589261.562,455566.19,22.846,6527
589258.7710000001,455567.068,22.751,6527
589256.029,455567.934,22.98,6527
589261.848,455563.943,22.921,6527
589258.955,455564.865,22.8,6527
589256.164,455565.74700000003,22.695,6527
589253.772,455563.945,22.97,6527
589254.7880000001,455564.393,22.751,6527
589280.041,455563.85000000003,22.659,6527
589267.2880000001,455563.875,22.990000000000002,6527
589270.186,455564.391,22.994,6527
589273.047,455564.919,22.859,6527
589275.882,455565.438,22.712,6527
589278.625,455565.942,22.682000000000002,6527
589281.4990000001,455566.457,22.59,6527
589259.358,455564.173,22.82,6527
589262.101,455564.67600000004,22.833000000000002,6527
589265.064,455565.21400000004,22.948,6527
589267.794,455565.704,23.01,6527
589270.59,455566.223,22.951,6527
589273.527,455566.751,22.849,6527
589276.286,455567.25800000003,22.682000000000002,6527
589279.262,455567.799,22.626,6527
589282.084,455568.314,22.528,6527
589254.491,455564.664,22.731,6527
589257.375,455565.191,22.771,6527
589260.158,455565.694,22.817,6527
589263.002,455566.21,22.853,6527
589265.785,455566.713,22.938,6527
589268.607,455567.229,22.843,6527
589271.609,455567.783,22.928,6527
589274.352,455568.273,22.872,6527
589277.3420000001,455568.817,22.63,6527
589280.341,455569.371,22.659,6527
589256.12,455566.581,22.78,6527
589258.8,455567.058,22.747,6527
589261.688,455567.587,22.73,6527
589264.687,455568.128,22.75,6527
589267.355,455568.618,22.829,6527
589270.429,455569.185,22.888,6527
589273.278,455569.701,22.921,6527
589276.191,455570.232,22.698,6527
589279.049,455570.748,22.707,6527
589281.884,455571.264,22.543,6527
589257.439,455569.011,22.705000000000002,6527
589260.416,455569.552,22.643,6527
589263.339,455570.093,22.718,6527
589266.263,455570.62200000003,22.738,6527
589268.9670000001,455571.112,22.866,6527
589272.005,455571.666,22.803,6527
589274.867,455572.195,22.876,6527
589277.803,455572.723,22.699,6527
589280.701,455573.251,22.669,6527
589258.178,455570.854,22.656,6527
589261.076,455571.38300000003,22.662,6527
589263.858,455571.886,22.646,6527
589266.742,455572.414,22.695,6527
589269.742,455572.955,22.813,6527
589272.488,455573.458,22.8,6527
589275.448,455574.0,22.872,6527
589278.283,455574.515,22.639,6527
589281.082,455575.021,22.505,6527
589260.231,455572.398,22.682000000000002,6527
589263.155,455572.927,22.666,6527
589266.0160000001,455573.442,22.705000000000002,6527
589268.8740000001,455573.971,22.646,6527
589271.683,455574.474,22.738,6527
589274.505,455574.989,22.718,6527
589277.363,455575.505,22.771,6527
589280.198,455576.02400000003,22.6,6527
589259.466,455574.112,23.099,6527
589262.367,455574.634,22.551000000000002,6527
589265.087,455575.137,22.456,6527
589267.958,455575.653,22.643,6527
589270.895,455576.194,22.679000000000002,6527
589273.625,455576.69800000003,22.728,6527
589276.6240000001,455577.239,22.771,6527
589279.4230000001,455577.74100000004,22.580000000000002,6527
589282.36,455578.286,22.561,6527
589261.655,455577.005,22.678,6527
589264.53,455577.52400000003,22.458000000000002,6527
589267.454,455578.066,22.533,6527
589270.22,455578.569,22.665,6527
589273.258,455579.12200000003,22.648,6527
589276.182,455579.651,22.714000000000002,6527
589278.941,455580.154,22.645,6527
589281.878,455580.681,22.576,6527
589262.496,455578.92600000004,22.748,6527
589265.551,455579.48,22.584,6527
589268.373,455579.996,22.479,6527
589271.294,455580.537,22.564,6527
589274.076,455581.04000000004,22.564,6527
589276.96,455581.569,22.653000000000002,6527
589279.937,455582.11,22.607,6527
589282.736,455582.61600000004,22.469,6527
589265.0430000001,455580.674,22.531,6527
589268.0160000001,455581.215,22.518,6527
589270.838,455581.731,22.479,6527
589273.84,455582.272,22.479,6527
589276.725,455582.8,22.551000000000002,6527
589279.5430000001,455583.316,22.623,6527
589265.382,455582.79000000004,22.491,6527
589268.319,455583.33,22.438,6527
589271.203,455583.859,22.438,6527
589273.871,455584.336,22.514,6527
589276.768,455584.864,22.524,6527
589279.55,455585.38,22.448,6527
589266.219,455585.065,22.784,6527
589269.1460000001,455585.61,22.377,6527
589272.034,455586.125,22.37,6527
589274.853,455586.641,22.433,6527
589277.74,455587.169,22.423000000000002,6527
589268.549,455586.84,22.305,6527
589271.485,455587.37200000003,22.302,6527
589274.333,455587.887,22.311,6527
589277.372,455588.438,22.384,6527
589275.376,455589.549,22.318,6527
589269.7710000001,455588.531,22.39,6527
589272.633,455589.04600000003,22.256,6527
589270.42,455590.397,22.398,6527
589273.397,455590.941,22.198,6527
589276.219,455591.457,22.171,6527
589271.365,455593.161,22.332,6527
589274.3150000001,455593.706,22.132,6527
589273.4,455596.245,22.512,6527
589274.808,455591.447,22.192,6527
589275.017,455592.318,22.165,6527
589277.503,455589.154,22.369,6527
589274.689,455590.151,22.31,6527
589271.823,455591.162,22.248,6527
589277.728,455587.374,22.392,6527
589275.104,455588.291,22.268,6527
589272.2880000001,455589.288,22.268,6527
589279.27,455585.587,22.52,6527
589276.483,455586.571,22.425,6527
589273.692,455587.541,22.432000000000002,6527
589270.85,455588.552,22.291,6527
589282.2880000001,455583.552,22.517,6527
589279.474,455584.545,22.51,6527
589276.772,455585.493,22.373,6527
589273.88,455586.516,22.31,6527
589271.041,455587.51300000004,22.225,6527
589274.147,455582.413,22.556,6527
589271.232,455583.446,22.409,6527
589268.301,455584.47000000003,22.373,6527
589281.578,455582.22000000003,22.629,6527
589278.686,455583.24,22.583000000000002,6527
589275.768,455584.264,22.461000000000002,6527
589272.941,455585.261,22.392,6527
589270.242,455586.20900000003,22.241,6527
589282.1950000001,455578.003,22.532,6527
589279.542,455578.933,22.684,6527
589276.791,455579.891,22.632,6527
589273.974,455580.884,22.625,6527
589271.174,455581.871,22.517,6527
589268.344,455582.865,22.494,6527
589282.491,455579.488,22.569,6527
589279.802,455580.43200000003,22.665,6527
589276.796,455581.479,22.674,6527
589281.513,455577.606,22.569,6527
589278.67,455578.60000000003,22.681,6527
589275.981,455579.547,22.615000000000002,6527
589273.167,455580.544,22.579,6527
589270.403,455581.515,22.517,6527
589267.665,455582.472,22.366,6527
589281.687,455576.427,22.56,6527
589276.03,455578.418,22.691,6527
589273.2000000001,455579.41500000004,22.606,6527
589270.4230000001,455580.386,22.642,6527
589267.698,455581.343,22.54,6527
589281.616,455574.452,22.596,6527
589278.813,455575.436,22.73,6527
589276.045,455576.406,22.842,6527
589273.281,455577.37700000004,22.737000000000002,6527
589270.379,455578.397,22.625,6527
589267.549,455579.39400000003,22.55,6527
589264.785,455580.368,22.435,6527
589281.958,455572.684,22.625,6527
589279.295,455573.615,22.668,6527
589276.373,455574.636,22.756,6527
589273.507,455575.646,22.697,6527
589270.73,455576.617,22.743000000000002,6527
589267.966,455577.587,22.602,6527
589265.087,455578.61100000003,22.448,6527
589281.238,455572.58400000003,22.619,6527
589278.526,455573.541,22.622,6527
589275.733,455574.50800000003,22.845,6527
589272.88,455575.518,22.802,6527
589270.142,455576.489,22.619,6527
589267.132,455577.539,22.635,6527
589264.292,455578.537,22.494,6527
589281.9890000001,455571.19800000003,22.602,6527
589279.237,455572.155,22.606,6527
589276.483,455573.12200000003,22.816,6527
589273.7710000001,455574.079,22.776,6527
589270.98,455575.05,22.711000000000002,6527
589268.0750000001,455576.074,22.612000000000002,6527
589265.35,455577.031,22.563,6527
589281.188,455568.971,22.53,6527
589278.306,455569.978,22.638,6527
589272.892,455571.879,22.894000000000002,6527
589270.115,455572.849,22.740000000000002,6527
589267.429,455573.81,22.596,6527
589261.77,455575.788,22.569,6527
589282.808,455566.27400000003,22.482,6527
589279.925,455567.281,22.578,6527
589277.161,455568.25200000004,22.657,6527
589274.305,455569.246,22.897000000000002,6527
589271.475,455570.243,22.877,6527
589268.685,455571.227,22.834,6527
589265.96,455572.184,22.7,6527
589263.235,455573.141,22.634,6527
589280.1410000001,455566.614,22.621000000000002,6527
589277.39,455567.571,22.752,6527
589274.662,455568.528,22.91,6527
589271.819,455569.522,22.979,6527
589269.12,455570.469,22.841,6527
589266.11,455571.53,22.762,6527
589263.385,455572.487,22.69,6527
589282.47,455564.956,22.492,6527
589279.653,455565.93700000003,22.531,6527
589276.912,455566.89400000003,22.775000000000002,6527
589274.02,455567.91500000004,22.792,6527
589271.177,455568.909,22.906,6527
589268.425,455569.869,22.828,6527
589265.7000000001,455570.827,22.746000000000002,6527
589262.871,455571.824,22.713,6527
589276.188,455564.897,22.781,6527
589273.257,455565.917,22.995,6527
589270.633,455566.835,22.913,6527
589267.637,455567.898,22.893,6527
589264.758,455568.905,22.818,6527
589261.993,455569.879,22.677,6527
589259.177,455570.86,22.726,6527
589278.916,455563.939,22.673000000000002,6527
589272.404,455564.396,22.88,6527
589269.64,455565.363,23.005,6527
589266.823,455566.347,22.988,6527
589264.009,455567.344,22.834,6527
589261.219,455568.32800000004,22.746000000000002,6527
589271.174,455564.515,23.025000000000002,6527
589268.4230000001,455565.485,22.92,6527
589265.567,455566.482,22.939,6527
589262.868,455567.439,22.792,6527
589259.924,455568.476,22.713,6527
589270.762,455564.12,22.906,6527
589267.958,455565.10000000003,22.988,6527
589265.194,455566.071,22.903000000000002,6527
589262.459,455567.031,22.746000000000002,6527
589259.642,455568.028,22.749,6527
589264.613,455564.34500000003,22.831,6527
589261.721,455565.355,22.831,6527
589258.878,455566.349,22.739,6527
589257.1680000001,455564.613,22.738,6527
589273.385,455592.978,22.098,6527
589271.748,455591.00800000003,22.138,6527
589274.622,455591.461,22.108,6527
589271.845,455589.613,22.194,6527
589274.769,455590.076,22.269000000000002,6527
589271.742,455589.42,22.167,6527
589274.767,455589.882,22.322,6527
589271.907,455588.96,22.22,6527
589274.87,455589.422,22.325,6527
589277.895,455589.897,22.295,6527
589268.886,455586.341,22.226,6527
589271.977,455586.816,22.387,6527
589274.812,455587.27,22.341,6527
589277.643,455587.707,22.331,6527
589266.596,455583.988,22.426000000000002,6527
589269.509,455584.441,22.394000000000002,6527
589272.429,455584.891,22.449,6527
589275.4180000001,455585.369,22.449,6527
589278.456,455585.84500000003,22.518,6527
589266.837,455583.091,22.453,6527
589269.862,455583.569,22.400000000000002,6527
589272.838,455584.032,22.538,6527
589275.633,455584.469,22.525000000000002,6527
589278.724,455584.947,22.505,6527
589267.436,455582.602,22.400000000000002,6527
589270.3200000001,455583.055,22.426000000000002,6527
589273.207,455583.505,22.466,6527
589276.117,455583.958,22.495,6527
589279.116,455584.433,22.535,6527
589267.047,455580.976,22.472,6527
589270.01,455581.439,22.499,6527
589272.894,455581.892,22.568,6527
589275.636,455582.329,22.482,6527
589278.665,455582.794,22.479,6527
589281.509,455583.24700000003,22.528,6527
589264.708,455579.303,22.469,6527
589267.746,455579.781,22.509,6527
589270.656,455580.231,22.535,6527
589273.606,455580.697,22.505,6527
589276.463,455581.147,22.659,6527
589279.35,455581.599,22.715,6527
589282.224,455582.052,22.446,6527
589266.179,455578.773,22.490000000000002,6527
589269.139,455579.238,22.523,6527
589272.203,455579.713,22.536,6527
589275.179,455580.179,22.664,6527
589278.05,455580.629,22.654,6527
589281.026,455581.09500000003,22.634,6527
589263.884,455578.09,22.568,6527
589266.909,455578.552,22.568,6527
589269.743,455579.005,22.584,6527
589272.667,455579.455,22.656,6527
589275.577,455579.92,22.62,6527
589278.654,455580.395,22.669,6527
589281.551,455580.848,22.594,6527
589262.122,455576.37700000004,22.587,6527
589264.956,455576.817,22.577,6527
589267.916,455577.28,22.614,6527
589270.98,455577.75800000003,22.607,6527
589273.894,455578.206,22.62,6527
589276.814,455578.672,22.702,6527
589279.727,455579.12200000003,22.676000000000002,6527
589282.562,455579.579,22.446,6527
589265.59,455575.327,22.577,6527
589268.579,455575.792,22.604,6527
589271.463,455576.242,22.627,6527
589274.462,455576.708,22.715,6527
589277.477,455577.183,22.679000000000002,6527
589280.3740000001,455577.635,22.61,6527
589262.667,455574.864,22.522000000000002,6527
589262.727,455573.184,22.568,6527
589268.584,455574.099,22.761,6527
589271.52,455574.561,22.738,6527
589274.522,455575.026,22.764,6527
589277.304,455575.467,22.656,6527
589280.316,455575.945,22.61,6527
589259.631,455571.81,22.597,6527
589262.545,455572.262,22.568,6527
589265.478,455572.712,22.666,6527
589268.313,455573.164,22.705000000000002,6527
589271.16,455573.601,22.709,6527
589274.093,455574.064,22.886,6527
589277.02,455574.52,22.728,6527
589279.93,455574.983,22.689,6527
589282.791,455575.42600000004,22.43,6527
589277.46,455573.173,22.752,6527
589280.41,455573.63800000004,22.559,6527
589260.1240000001,455570.461,22.687,6527
589262.909,455570.902,22.631,6527
589268.986,455571.855,22.729,6527
589271.804,455572.292,22.893,6527
589274.74,455572.745,22.762,6527
589259.931,455569.183,22.623,6527
589262.775,455569.63300000003,22.732,6527
589265.813,455570.098,22.771,6527
589268.727,455570.56,22.761,6527
589271.713,455571.025,22.745,6527
589274.675,455571.488,22.81,6527
589277.585,455571.941,22.797,6527
589280.331,455572.368,22.548000000000002,6527
589261.352,455568.587,22.728,6527
589264.387,455569.06200000003,22.817,6527
589267.1950000001,455569.50200000004,22.863,6527
589270.197,455569.977,22.902,6527
589273.17,455570.443,22.883,6527
589276.096,455570.896,22.709,6527
589279.082,455571.358,22.702,6527
589281.969,455571.811,22.591,6527
589274.192,455569.85000000003,22.913,6527
589277.066,455570.303,22.687,6527
589280.105,455570.768,22.601,6527
589259.412,455567.541,22.745,6527
589262.371,455567.994,22.801000000000002,6527
589265.409,455568.469,22.887,6527
589268.385,455568.935,22.811,6527
589271.282,455569.385,22.92,6527
589259.344,455566.324,22.751,6527
589262.254,455566.777,22.745,6527
589265.125,455567.226,22.909,6527
589268.189,455567.701,22.919,6527
589270.997,455568.141,22.961000000000002,6527
589274.036,455568.62,22.814,6527
589277.064,455569.098,22.659,6527
589279.7930000001,455569.526,22.696,6527
589282.786,455569.992,22.456,6527
589258.648,455565.22500000003,22.761,6527
589261.493,455565.661,22.814,6527
589264.429,455566.114,22.902,6527
589267.366,455566.577,22.883,6527
589270.338,455567.042,23.014,6527
589273.225,455567.495,22.879,6527
589276.096,455567.945,22.81,6527
589279.098,455568.411,22.663,6527
589282.061,455568.87700000004,22.531,6527
589269.277,455563.996,22.945,6527
589272.05,455564.43700000003,22.797,6527
589274.9990000001,455564.9,22.771,6527
589277.768,455565.327,22.663,6527
589280.678,455565.78,22.623,6527
589282.443,455564.021,22.457,6527
589270.682,455565.96400000004,22.887,6527
589273.514,455566.417,22.936,6527
589276.542,455566.88300000003,22.657,6527
589279.337,455567.32,22.71,6527
589282.313,455567.786,22.575,6527
589259.077,455564.16000000003,22.798000000000002,6527
589262.128,455564.635,22.874,6527
589264.848,455565.063,22.897000000000002,6527
589267.768,455565.512,22.959,6527
589283.562,455579.47500000003,22.345,6527
589283.478,455578.09,22.476,6527
589283.126,455576.192,22.493000000000002,6527
589283.224,455574.259,22.542,6527
589283.886,455569.5,22.453,6527
589283.7390000001,455567.78500000003,22.451,6527
589282.981,455564.378,22.518,6527
589284.4,455566.989,22.459,6527
589283.153,455569.87700000004,22.466,6527
589283.536,455573.77,22.462,6527
589284.018,455575.563,22.446,6527
589283.174,455576.57800000004,22.511,6527
589284.316,455576.62200000003,22.523,6527
589284.569,455575.42,22.526,6527
589284.381,455573.485,22.5,6527
589284.814,455571.677,22.427,6527
589284.121,455571.576,22.349,6527
589284.694,455570.24100000004,22.368000000000002,6527
589283.93,455568.01300000004,22.467,6527
589283.138,455565.566,22.574,6527
589283.772,455581.522,22.493000000000002,6527
589283.156,455578.076,22.467,6527
589283.292,455576.408,22.518,6527
589283.323,455574.091,22.539,6527
589283.166,455572.822,22.482,6527
589284.702,455572.242,22.400000000000002,6527
589283.005,455571.221,22.473,6527
589283.67,455566.259,22.436,6527
589286.345,455577.18200000003,22.588,6527
589286.009,455575.287,22.457,6527
589288.616,455572.565,22.237000000000002,6527
589285.861,455573.43,22.48,6527
589288.4940000001,455571.335,22.197,6527
589285.638,455572.24,22.407,6527
589291.219,455569.213,22.053,6527
589288.402,455570.105,22.256,6527
589285.647,455570.97000000003,22.421,6527
589292.39,455566.81,22.142,6527
589289.622,455567.689,22.214000000000002,6527
589286.667,455568.621,22.26,6527
589294.841,455564.28,22.12,6527
589292.102,455565.145,22.182000000000002,6527
589289.259,455566.05,22.231,6527
589286.556,455566.906,22.412,6527
589293.319,455563.67100000003,21.913,6527
589290.665,455564.51,22.205000000000002,6527
589287.861,455565.389,22.277,6527
589285.005,455566.294,22.418,6527
589288.328,455563.916,22.238,6527
589285.615,455564.768,22.415,6527
589290.889,455563.74,22.095,6527
589293.685,455564.246,22.003,6527
589285.698,455564.881,22.452,6527
589288.572,455565.4,22.262,6527
589291.355,455565.916,22.216,6527
589287.235,455567.504,22.288,6527
589290.133,455568.036,22.262,6527
589284.955,455568.846,22.364,6527
589287.958,455569.387,22.39,6527
589290.898,455569.919,21.95,6527
589285.975,455570.393,22.449,6527
589288.964,455570.95,22.16,6527
589284.9130000001,455571.82,22.35,6527
589287.811,455572.348,22.228,6527
589286.358,455574.286,22.475,6527
589286.686,455576.053,22.416,6527
589286.012,455577.097,22.213,6527
589285.425,455578.84,22.341,6527
589284.959,455577.032,22.424,6527
589287.054,455575.668,22.434,6527
589287.258,455574.476,22.388,6527
589287.341,455572.451,22.25,6527
589290.267,455569.776,22.155,6527
589287.552,455570.72000000003,22.332,6527
589292.289,455568.721,22.152,6527
589289.459,455569.715,22.263,6527
589286.6950000001,455570.68200000003,22.375,6527
589293.154,455567.282,22.181,6527
589290.324,455568.276,22.296,6527
589287.547,455569.24700000003,22.313,6527
589292.2390000001,455565.108,22.053,6527
589289.665,455566.012,22.178,6527
589286.796,455567.006,22.391000000000002,6527
589288.3,455564.349,22.295,6527
589285.47,455565.343,22.476,6527
589288.582,455563.655,22.23,6527
589285.7880000001,455564.639,22.397000000000002,6527
589285.247,455563.98600000003,22.453,6527
589285.691,455575.879,22.312,6527
589286.089,455573.27400000003,22.341,6527
589287.638,455572.705,22.351,6527
589285.902,455571.684,22.45,6527
589288.776,455572.12700000004,22.185,6527
589285.617,455570.43200000003,22.426000000000002,6527
589288.659,455570.907,22.322,6527
589284.909,455569.33,22.394000000000002,6527
589287.796,455569.783,22.253,6527
589290.732,455570.23600000003,22.164,6527
589291.314,455564.02,22.213,6527
589287.632,455563.837,22.247,6527
589290.431,455564.278,22.07,6527
589285.392,455564.483,22.496000000000002,6527
589288.187,455564.927,22.254,6527
589285.302,455568.264,22.401,6527
589286.5,455566.699,22.388,6527
589289.479,455567.16500000004,22.152,6527
589292.504,455567.643,22.139,6527
589288.237,455568.717,22.296,6527
589291.151,455569.183,22.136,6527
589241.426,455543.642,23.335,6527
589242.712,455544.24100000004,23.154,6527
589242.537,455546.303,23.666,6527
589242.99,455542.718,23.209,6527
589242.234,455545.259,23.279,6527
589241.576,455543.681,23.389,6527
589241.316,455542.39,23.175,6527
589241.456,455542.13300000003,23.13,6527
589241.727,455542.45300000004,23.097,6527
589229.01,455521.74,23.636,6527
589228.836,455519.408,23.62,6527
589228.435,455522.564,23.845,6527
589227.728,455519.284,23.73,6527
589228.773,455520.164,23.649,6527
589241.334,455532.327,23.531,6527
589238.661,455533.18200000003,23.449,6527
589235.971,455534.037,23.407,6527
589241.379,455531.083,23.594,6527
589238.591,455531.965,23.43,6527
589235.866,455532.83,23.400000000000002,6527
589241.589,455528.735,23.653000000000002,6527
589238.683,455529.654,23.561,6527
589235.8960000001,455530.536,23.479,6527
589240.447,455527.485,23.64,6527
589237.656,455528.364,23.561,6527
589234.904,455529.232,23.426000000000002,6527
589242.324,455526.309,23.787,6527
589239.559,455527.178,23.692,6527
589236.706,455528.087,23.515,6527
589233.879,455528.992,23.492,6527
589240.171,455525.78,23.676000000000002,6527
589237.482,455526.635,23.633,6527
589234.655,455527.53,23.518,6527
589231.72,455528.45900000003,23.886,6527
589242.952,455522.89900000003,23.84,6527
589240.381,455523.71400000004,23.761,6527
589237.513,455524.623,23.715,6527
589234.7220000001,455525.515,23.554000000000002,6527
589232.036,455526.357,23.512,6527
589242.345,455520.88800000004,23.899,6527
589239.6190000001,455521.756,23.794,6527
589236.7660000001,455522.66500000004,23.653000000000002,6527
589234.102,455523.507,23.673000000000002,6527
589231.351,455524.389,23.545,6527
589240.449,455521.919,23.922,6527
589237.814,455522.761,23.830000000000002,6527
589235.023,455523.643,23.577,6527
589232.4130000001,455524.47500000003,23.574,6527
589241.507,455519.773,23.997,6527
589238.716,455520.655,23.846,6527
589235.85,455521.577,23.777,6527
589233.085,455522.443,23.791,6527
589230.297,455523.325,23.62,6527
589234.591,455519.966,23.755,6527
589231.761,455520.87200000003,23.735,6527
589237.378,455519.08400000003,23.837,6527
589229.679,455519.53500000003,23.695,6527
589242.066,455532.95300000004,23.505,6527
589239.34,455533.821,23.367,6527
589236.497,455534.71400000004,23.492,6527
589241.345,455534.70900000003,23.394000000000002,6527
589238.324,455535.668,23.387,6527
589240.25,455537.045,23.366,6527
589241.791,455537.824,23.330000000000002,6527
589238.807,455538.77,23.275000000000002,6527
589242.74,455538.564,23.376,6527
589239.949,455539.446,23.232,6527
589240.557,455540.7,23.18,6527
589242.753,455541.846,23.187,6527
589230.905,455519.26300000004,23.782,6527
589233.572,455519.74,23.825,6527
589236.532,455520.281,23.881,6527
589239.354,455520.797,23.818,6527
589242.199,455521.313,23.92,6527
589229.528,455521.23,23.72,6527
589232.451,455521.75800000003,23.73,6527
589235.336,455522.287,23.822,6527
589238.184,455522.802,23.766000000000002,6527
589241.104,455523.331,23.858,6527
589231.5210000001,455523.119,23.674,6527
589234.382,455523.651,23.559,6527
589237.2660000001,455524.163,23.723,6527
589240.111,455524.692,23.749,6527
589242.92,455525.194,23.854,6527
589229.524,455524.098,23.825,6527
589232.422,455524.63,23.628,6527
589235.243,455525.145,23.612000000000002,6527
589238.207,455525.68700000003,23.589000000000002,6527
589241.091,455526.202,23.749,6527
589232.7660000001,455526.961,23.533,6527
589235.611,455527.477,23.533,6527
589238.433,455527.992,23.549,6527
589241.278,455528.50800000003,23.631,6527
589233.8910000001,455529.688,23.457,6527
589236.811,455530.227,23.569,6527
589239.518,455530.72000000003,23.523,6527
589242.442,455531.248,23.536,6527
589233.431,455530.738,23.733,6527
589236.522,455531.295,23.457,6527
589239.15,455531.772,23.444,6527
589242.215,455532.336,23.602,6527
589233.944,455531.78500000003,23.789,6527
589236.897,455532.33,23.438,6527
589239.898,455532.871,23.425,6527
589242.666,455533.374,23.487000000000002,6527
589237.13,455536.87700000004,23.536,6527
589240.057,455537.408,23.224,6527
