543168.3690000001,303529.978,42.198,6527
543170.836,303528.097,42.26,6527
543173.088,303526.378,42.437,6527
543175.287,303524.702,42.467,6527
543177.732,303522.844,42.605000000000004,6527
543179.932,303521.175,42.815,6527
543165.715,303533.474,41.961,6527
543168.028,303531.70900000003,42.102000000000004,6527
543170.316,303529.966,42.300000000000004,6527
543172.633,303528.201,42.339,6527
543174.894,303526.482,42.477000000000004,6527
543177.273,303524.667,42.523,6527
543179.705,303522.819,42.759,6527
543181.878,303521.164,42.841,6527
543166.343,303534.816,42.22,6527
543168.568,303533.113,42.141,6527
543170.819,303531.391,42.224000000000004,6527
543173.136,303529.629,42.355000000000004,6527
543175.336,303527.953,42.428000000000004,6527
543177.777,303526.098,42.621,6527
543180.002,303524.39900000003,42.687,6527
543182.2930000001,303522.657,42.874,6527
543184.761,303520.78,43.002,6527
543167.291,303535.879,42.221000000000004,6527
543169.542,303534.15,42.099000000000004,6527
543171.8690000001,303532.38800000004,42.264,6527
543174.058,303530.712,42.352000000000004,6527
543176.297,303529.01300000004,42.454,6527
543178.637,303527.228,42.588,6527
543180.901,303525.505,42.621,6527
543183.215,303523.743,42.811,6527
543185.529,303521.978,42.982,6527
543170.192,303535.976,42.04,6527
543172.532,303534.18700000003,42.155,6527
543174.845,303532.422,42.247,6527
543177.084,303530.727,42.414,6527
543179.401,303528.962,42.493,6527
543181.574,303527.31200000003,42.641,6527
543183.888,303525.547,42.805,6527
543186.227,303523.75800000003,42.867000000000004,6527
543188.427,303522.082,42.972,6527
543171.309,303537.46,41.992,6527
543173.715,303535.625,42.13,6527
543175.979,303533.906,42.209,6527
543178.355,303532.094,42.347,6527
543180.672,303530.332,42.53,6527
543182.959,303528.59,42.678000000000004,6527
543185.251,303526.84500000003,42.730000000000004,6527
543187.38,303525.221,42.898,6527
543189.71,303523.455,43.013,6527
543192.024,303521.693,43.216,6527
543171.658,303539.047,41.907000000000004,6527
543174.125,303537.173,42.156,6527
543176.2980000001,303535.523,42.297000000000004,6527
543178.589,303533.777,42.376,6527
543180.968,303531.962,42.356,6527
543183.193,303530.267,42.56,6527
543185.598,303528.439,42.763,6527
543187.86,303526.72000000003,42.917,6527
543190.151,303524.978,43.042,6527
543192.402,303523.256,43.055,6527
543194.6630000001,303521.536,43.209,6527
543171.52,303540.487,42.12,6527
543173.837,303538.716,41.982,6527
543176.088,303536.99700000003,42.179,6527
543178.4670000001,303535.188,42.317,6527
543180.8200000001,303533.4,42.409,6527
543183.072,303531.681,42.54,6527
543185.334,303529.962,42.635,6527
543187.6460000001,303528.199,42.822,6527
543190.025,303526.387,42.858000000000004,6527
543192.313,303524.64900000003,43.098,6527
543194.666,303522.86,43.085,6527
543196.917,303521.141,43.288000000000004,6527
543177.802,303537.284,42.192,6527
543180.155,303535.499,42.353,6527
543182.469,303533.734,42.422000000000004,6527
543184.76,303531.991,42.494,6527
543187.227,303530.114,42.694,6527
543189.361,303528.488,42.855000000000004,6527
543191.7170000001,303526.703,42.957,6527
543194.031,303524.934,43.022,6527
543196.318,303523.195,43.177,6527
543198.723,303521.36100000003,43.209,6527
543173.198,303540.795,42.032000000000004,6527
543175.564,303538.984,42.071,6527
543172.42,303542.504,42.609,6527
543174.636,303540.786,42.009,6527
543176.953,303539.021,42.058,6527
543179.126,303537.371,42.215,6527
543181.466,303535.586,42.333,6527
543183.819,303533.797,42.494,6527
543186.044,303532.098,42.557,6527
543188.462,303530.27,42.747,6527
543190.802,303528.478,42.75,6527
543193.129,303526.723,43.062,6527
543195.3150000001,303525.043,43.016,6527
543197.689,303523.237,43.223,6527
543200.0160000001,303521.47500000003,43.393,6527
543173.049,303542.743,42.396,6527
543175.264,303541.034,42.045,6527
543177.669,303539.2,42.137,6527
543179.816,303537.57300000003,42.33,6527
543182.159,303535.781,42.284,6527
543184.359,303534.109,42.438,6527
543186.62,303532.39,42.566,6527
543189.026,303530.552,42.557,6527
543191.22,303528.891,42.901,6527
543193.577,303527.096,42.849000000000004,6527
543195.952,303525.288,43.042,6527
543198.243,303523.552,43.268,6527
543200.583,303521.764,43.334,6527
543173.73,303543.837,42.757,6527
543175.984,303542.065,41.923,6527
543178.337,303540.28,42.078,6527
543180.651,303538.515,42.202,6527
543182.981,303536.749,42.36,6527
543185.1410000001,303535.096,42.399,6527
543187.432,303533.357,42.573,6527
543189.719,303531.615,42.655,6527
543192.01,303529.873,42.773,6527
543194.337,303528.11100000003,42.99,6527
543196.585,303526.392,43.101,6527
543198.902,303524.626,43.131,6527
543201.255,303522.841,43.288000000000004,6527
543203.634,303521.04,43.6,6527
543177.104,303544.316,41.976,6527
543179.434,303542.55,42.055,6527
543181.659,303540.854,42.153,6527
543184.1,303539.0,42.327,6527
543186.301,303537.325,42.412,6527
543188.675,303535.518,42.543,6527
543190.965,303533.779,42.691,6527
543193.126,303532.126,42.822,6527
543195.531,303530.295,42.904,6527
543197.642,303528.688,43.009,6527
543200.0210000001,303526.877,43.098,6527
543202.37,303525.09500000003,43.328,6527
543204.547,303523.445,43.442,6527
543207.014,303521.57,43.646,6527
543176.622,303546.572,41.982,6527
543179.027,303544.737,42.002,6527
543181.38,303542.952,42.179,6527
543183.606,303541.256,42.255,6527
543185.9450000001,303539.467,42.343,6527
543188.21,303537.748,42.465,6527
543190.625,303535.917,42.698,6527
543192.877,303534.19800000003,42.763,6527
543195.164,303532.45900000003,42.914,6527
543197.507,303530.67,42.944,6527
543199.654,303529.04,43.081,6527
543202.007,303527.25800000003,43.282000000000004,6527
543204.232,303525.559,43.38,6527
543206.484,303523.843,43.544000000000004,6527
543208.899,303522.012,43.675000000000004,6527
543177.151,303547.561,42.117,6527
543179.593,303545.703,42.094,6527
543181.845,303543.981,42.097,6527
543184.162,303542.212,42.143,6527
543186.603,303540.362,42.392,6527
543188.863,303538.641,42.412,6527
543191.062,303536.972,42.596000000000004,6527
543193.493,303535.117,42.75,6527
543195.729,303533.42100000003,42.914,6527
543198.16,303531.567,43.019,6527
543200.385,303529.871,43.141,6527
543202.764,303528.059,43.219,6527
543205.003,303526.366,43.367000000000004,6527
543207.137,303524.737,43.462,6527
543209.5160000001,303522.93200000003,43.656,6527
543211.777,303521.212,43.872,6527
543179.365,303548.027,41.952,6527
543181.617,303546.308,41.981,6527
543183.97,303544.51900000003,42.119,6527
543186.221,303542.8,42.218,6527
543188.5480000001,303541.038,42.372,6527
543190.888,303539.249,42.457,6527
543193.241,303537.465,42.634,6527
543195.531,303535.723,42.769,6527
543197.757,303534.02400000003,42.848,6527
543200.0700000001,303532.262,42.966,6527
543202.4890000001,303530.43,43.11,6527
543204.75,303528.714,43.313,6527
543207.09,303526.929,43.484,6527
543209.355,303525.21,43.586,6527
543211.58,303523.514,43.635,6527
543213.895,303521.749,43.717,6527
543180.8740000001,303549.473,41.929,6527
543183.008,303547.843,41.985,6527
543185.335,303546.078,42.172000000000004,6527
543187.678,303544.294,42.201,6527
543189.873,303542.617,42.27,6527
543192.2880000001,303540.788,42.506,6527
543194.513,303539.089,42.516,6527
543196.892,303537.281,42.703,6527
543199.323,303535.429,42.851,6527
543201.523,303533.757,43.002,6527
543203.849,303531.991,43.107,6527
543206.1140000001,303530.279,43.333,6527
543208.428,303528.51300000004,43.405,6527
543210.794,303526.705,43.504,6527
543212.9670000001,303525.055,43.625,6527
543215.372,303523.224,43.773,6527
543217.571,303521.554,43.901,6527
543181.743,303549.907,41.935,6527
543184.0700000001,303548.141,42.06,6527
543186.295,303546.446,42.119,6527
543188.4940000001,303544.773,42.316,6527
543190.808,303543.011,42.369,6527
543193.073,303541.292,42.529,6527
543195.386,303539.526,42.641,6527
543197.716,303537.764,42.769,6527
543199.965,303536.045,42.867000000000004,6527
543202.383,303534.217,43.1,6527
543204.723,303532.428,43.077,6527
543206.948,303530.732,43.231,6527
543209.301,303528.951,43.402,6527
543211.566,303527.23600000003,43.589,6527
543213.9450000001,303525.427,43.727000000000004,6527
543216.219,303523.685,43.809,6527
543218.51,303521.946,43.891,6527
543181.773,303549.938,41.837,6527
543184.061,303548.199,42.011,6527
543186.466,303546.367,42.188,6527
543188.7220000001,303544.651,42.273,6527
543191.013,303542.909,42.313,6527
543193.274,303541.193,42.585,6527
543195.464,303539.514,42.51,6527
543197.817,303537.732,42.726,6527
543200.0160000001,303536.059,42.877,6527
543202.434,303534.231,43.048,6527
543204.683,303532.50800000003,43.11,6527
543206.973,303530.76900000003,43.258,6527
543209.441,303528.898,43.487,6527
543211.666,303527.202,43.582,6527
543213.905,303525.509,43.694,6527
543216.333,303523.655,43.822,6527
543218.532,303521.982,43.956,6527
543188.4180000001,303546.054,42.175000000000004,6527
543190.683,303544.338,42.336,6527
543193.049,303542.527,42.454,6527
543195.376,303540.764,42.624,6527
543197.627,303539.045,42.660000000000004,6527
543199.892,303537.326,42.792,6527
543202.0650000001,303535.68,43.015,6527
543204.379,303533.915,43.048,6527
543206.696,303532.14900000003,43.208,6527
543208.957,303530.433,43.376,6527
543211.274,303528.67100000003,43.487,6527
543213.562,303526.93200000003,43.658,6527
543215.941,303525.124,43.766,6527
543218.346,303523.293,43.865,6527
543220.545,303521.62,43.986000000000004,6527
543181.492,303551.321,41.899,6527
543183.819,303549.559,41.985,6527
543186.008,303547.88300000003,42.021,6527
543182.814,303553.07300000003,42.044000000000004,6527
543185.284,303551.189,41.978,6527
543187.572,303549.45,42.155,6527
543189.889,303547.688,42.296,6527
543192.176,303545.943,42.296,6527
543194.441,303544.22000000003,42.391,6527
543196.8200000001,303542.418,42.631,6527
543199.133,303540.653,42.664,6527
543201.424,303538.911,42.825,6527
543203.777,303537.129,42.975,6527
543205.937,303535.473,43.028,6527
543208.29,303533.691,43.284,6527
543210.51,303532.0,43.445,6527
543212.775,303530.284,43.566,6527
543215.154,303528.477,43.681,6527
543217.353,303526.804,43.779,6527
543219.759,303524.972,43.851,6527
543222.072,303523.207,43.93,6527
543224.389,303521.439,43.891,6527
543184.152,303554.48600000003,41.909,6527
543186.468,303552.724,42.037,6527
543188.73,303551.006,42.132,6527
543191.104,303549.199,42.267,6527
543193.421,303547.434,42.355000000000004,6527
543195.774,303545.646,42.382,6527
543197.973,303543.973,42.546,6527
543200.352,303542.168,42.697,6527
543202.666,303540.402,42.88,6527
543205.019,303538.617,43.025,6527
543207.332,303536.855,43.09,6527
543209.623,303535.113,43.208,6527
543211.822,303533.44,43.34,6527
543214.074,303531.724,43.415,6527
543216.335,303530.00800000003,43.628,6527
543218.665,303528.249,43.835,6527
543220.9400000001,303526.507,43.910000000000004,6527
543223.231,303524.765,43.947,6527
543225.547,303522.993,43.845,6527
543227.887,303521.19800000003,43.727000000000004,6527
543184.432,303555.409,42.283,6527
543186.683,303553.676,42.001,6527
543188.961,303551.93700000003,42.067,6527
543191.34,303550.126,42.175000000000004,6527
543193.539,303548.45,42.264,6527
543195.892,303546.668,42.444,6527
543198.2710000001,303544.859,42.549,6527
543200.585,303543.097,42.706,6527
543202.911,303541.335,42.825,6527
543205.14,303539.63300000003,42.811,6527
543207.49,303537.851,43.067,6527
543209.833,303536.06200000003,43.14,6527
543212.094,303534.35000000003,43.356,6527
543214.447,303532.565,43.487,6527
543216.6730000001,303530.873,43.668,6527
543218.963,303529.134,43.776,6527
543221.252,303527.392,43.842,6527
543223.415,303525.742,43.924,6527
543225.794,303523.924,43.746,6527
543228.111,303522.155,43.730000000000004,6527
543186.895,303555.23600000003,41.926,6527
543189.134,303553.544,42.122,6527
543191.385,303551.821,42.119,6527
543193.6730000001,303550.079,42.300000000000004,6527
543195.959,303548.342,42.375,6527
543198.338,303546.53,42.496,6527
543200.564,303544.83400000003,42.644,6527
543202.917,303543.049,42.749,6527
543205.296,303541.238,42.821,6527
543207.583,303539.502,43.035000000000004,6527
543209.809,303537.806,43.159,6527
543212.227,303535.978,43.313,6527
543214.488,303534.262,43.553000000000004,6527
543216.831,303532.473,43.533,6527
543219.145,303530.711,43.687,6527
543221.433,303528.972,43.848,6527
543223.697,303527.25,43.874,6527
543225.887,303525.571,43.792,6527
543228.2,303523.802,43.75,6527
543230.517,303522.038,43.799,6527
543230.843,303524.93,43.753,6527
543187.153,303558.17100000003,41.916000000000004,6527
543189.532,303556.359,41.952,6527
543191.735,303554.683,42.027,6527
543194.049,303552.92100000003,42.172000000000004,6527
543196.2220000001,303551.271,42.313,6527
543198.513,303549.529,42.378,6527
543200.892,303547.721,42.496,6527
543203.117,303546.025,42.618,6527
543205.47,303544.239,42.706,6527
543207.731,303542.52400000003,42.949,6527
543210.0970000001,303540.715,43.035000000000004,6527
543212.542,303538.864,43.185,6527
543214.65,303537.261,43.31,6527
543217.055,303535.43200000003,43.461,6527
543219.345,303533.68700000003,43.494,6527
543221.633,303531.94800000003,43.645,6527
543224.051,303530.123,43.871,6527
543226.237,303528.444,43.851,6527
543228.58,303526.652,43.779,6527
543188.019,303559.56,42.017,6527
543190.27,303557.83400000003,41.958,6527
543192.672,303556.003,42.011,6527
543195.002,303554.24,42.224000000000004,6527
543197.25,303552.521,42.323,6527
543199.603,303550.733,42.401,6527
543201.78,303549.083,42.487,6527
543204.12,303547.301,42.667,6527
543206.358,303545.602,42.683,6527
543208.6460000001,303543.863,42.864000000000004,6527
543211.025,303542.055,42.998,6527
543213.224,303540.385,43.12,6527
543215.603,303538.577,43.281,6527
543217.983,303536.773,43.477000000000004,6527
543220.274,303535.03,43.5,6527
543222.561,303533.295,43.746,6527
543224.875,303531.529,43.848,6527
543227.166,303529.79,43.96,6527
543229.571,303527.952,43.861000000000004,6527
543187.761,303559.934,42.697,6527
543190.068,303558.146,41.906,6527
543192.382,303556.384,42.109,6527
543194.607,303554.685,42.132,6527
543196.872,303552.972,42.309,6527
543199.339,303551.091,42.378,6527
543201.534,303549.424,42.529,6527
543203.9130000001,303547.618,42.723,6527
543206.177,303545.89900000003,42.818,6527
543208.377,303544.223,42.828,6527
543210.782,303542.398,43.077,6527
543212.89,303540.792,43.113,6527
543215.27,303538.987,43.225,6527
543217.583,303537.224,43.428000000000004,6527
543219.783,303535.555,43.615,6527
543222.253,303533.68,43.648,6527
543224.514,303531.966,43.832,6527
543226.893,303530.157,43.953,6527
543229.122,303528.455,43.838,6527
543231.4,303526.706,43.730000000000004,6527
543189.823,303559.022,41.926,6527
543192.137,303557.26,42.050000000000004,6527
543194.5160000001,303555.449,42.099000000000004,6527
543196.8690000001,303553.663,42.247,6527
543199.042,303552.014,42.388,6527
543201.421,303550.202,42.405,6527
543203.672,303548.48600000003,42.549,6527
543206.091,303546.655,42.703,6527
543208.404,303544.896,42.821,6527
543210.669,303543.18,43.071,6527
543212.92,303541.461,43.094,6527
543215.12,303539.788,43.244,6527
543217.42,303538.052,43.415,6527
543219.76,303536.267,43.494,6527
543222.025,303534.548,43.589,6527
543224.339,303532.789,43.76,6527
543226.629,303531.047,43.891,6527
543228.969,303529.259,43.891,6527
543231.3740000001,303527.417,43.717,6527
543190.916,303560.18,41.785000000000004,6527
543193.305,303558.375,42.021,6527
543195.468,303556.722,42.001,6527
543197.935,303554.849,42.178000000000004,6527
543200.2,303553.13300000003,42.326,6527
543202.58,303551.321,42.454,6527
543204.841,303549.609,42.660000000000004,6527
543207.093,303547.89,42.703,6527
543209.511,303546.058,42.831,6527
543211.799,303544.319,43.008,6527
543214.116,303542.55700000003,43.153,6527
543216.468,303540.772,43.281,6527
543218.602,303539.145,43.366,6527
543220.955,303537.36,43.514,6527
543223.155,303535.69,43.658,6527
543225.4720000001,303533.922,43.684,6527
543227.824,303532.14,43.881,6527
543229.984,303530.484,43.763,6527
543192.164,303561.564,41.857,6527
543194.376,303559.89400000003,42.06,6527
543196.6900000001,303558.132,42.175000000000004,6527
543199.033,303556.34,42.185,6527
543201.294,303554.621,42.264,6527
543203.6730000001,303552.819,42.519,6527
543206.026,303551.029,42.51,6527
543208.343,303549.27,42.68,6527
543210.542,303547.597,42.841,6527
543212.921,303545.792,42.979,6527
543215.235,303544.027,43.061,6527
543217.588,303542.245,43.222,6527
543219.902,303540.482,43.363,6527
543222.228,303538.72000000003,43.477000000000004,6527
543224.392,303537.074,43.707,6527
543226.679,303535.332,43.789,6527
543228.944,303533.616,43.855000000000004,6527
543231.28,303531.826,43.825,6527
543193.214,303562.23600000003,41.903,6527
543195.388,303560.586,42.027,6527
543197.649,303558.87,42.172000000000004,6527
543199.966,303557.105,42.211,6527
543202.165,303555.435,42.401,6527
543204.5700000001,303553.601,42.431,6527
543206.796,303551.905,42.519,6527
543209.123,303550.146,42.769,6527
543211.528,303548.311,42.772,6527
543213.8150000001,303546.579,43.015,6527
543216.142,303544.817,43.149,6527
543218.368,303543.117,43.195,6527
543220.681,303541.359,43.425000000000004,6527
543223.126,303539.507,43.559,6527
543225.325,303537.83400000003,43.658,6527
543227.704,303536.026,43.773,6527
543229.969,303534.30700000003,43.861000000000004,6527
543218.128,303545.0,43.201,6527
543220.507,303543.192,43.322,6527
543222.706,303541.522,43.463,6527
543225.023,303539.757,43.509,6527
543227.284,303538.044,43.703,6527
543229.689,303536.213,43.837,6527
543195.198,303562.422,41.984,6527
543197.502,303560.679,42.128,6527
543199.8150000001,303558.917,42.2,6527
543202.041,303557.221,42.305,6527
543204.214,303555.572,42.443,6527
543206.593,303553.76300000004,42.555,6527
543208.818,303552.071,42.689,6527
543211.148,303550.309,42.791000000000004,6527
543213.462,303548.543,42.833,6527
543215.727,303546.827,43.04,6527
543198.007,303562.858,42.069,6527
543200.2980000001,303561.112,42.112,6527
543202.7,303559.281,42.2,6527
543204.938,303557.592,42.410000000000004,6527
543207.255,303555.826,42.433,6527
543209.481,303554.13,42.587,6527
543211.706,303552.434,42.623,6527
543214.056,303550.657,42.909,6527
543216.258,303548.981,42.935,6527
543218.6730000001,303547.152,43.148,6527
543220.899,303545.456,43.25,6527
543223.225,303543.701,43.486000000000004,6527
543225.683,303541.82300000003,43.519,6527
543227.921,303540.127,43.631,6527
543230.144,303538.438,43.837,6527
543202.457,303562.31,42.108000000000004,6527
543204.784,303560.548,42.249,6527
543207.1240000001,303558.766,42.417,6527
543209.437,303557.001,42.446,6527
543211.741,303555.262,42.581,6527
543213.9670000001,303553.566,42.732,6527
543216.223,303551.853,42.847,6527
543218.475,303550.137,43.007,6527
543220.775,303548.402,43.175000000000004,6527
543223.1410000001,303546.593,43.289,6527
543225.354,303544.92100000003,43.411,6527
543227.671,303543.162,43.562,6527
543230.05,303541.353,43.657000000000004,6527
543204.743,303561.53500000003,42.203,6527
543206.981,303559.842,42.407000000000004,6527
543209.321,303558.051,42.377,6527
543211.674,303556.275,42.728,6527
543213.939,303554.553,42.659,6527
543216.304,303552.744,42.742000000000004,6527
543218.517,303551.078,43.056,6527
543220.831,303549.313,43.011,6527
543223.095,303547.597,43.214,6527
543225.295,303545.927,43.362,6527
543227.634,303544.142,43.483000000000004,6527
543229.961,303542.38300000003,43.598,6527
543213.262,303555.804,42.681,6527
543215.536,303554.061,42.681,6527
543217.928,303552.261,42.987,6527
543220.18,303550.545,43.095,6527
543222.533,303548.76300000004,43.262,6527
543224.7980000001,303547.04,43.311,6527
543227.02,303545.351,43.472,6527
543229.376,303543.566,43.551,6527
543231.536,303541.916,43.699,6527
543203.979,303562.849,42.104,6527
543206.381,303561.02,42.278,6527
543208.711,303559.255,42.363,6527
543210.959,303557.543,42.547000000000004,6527
543205.389,303563.063,42.209,6527
543207.716,303561.301,42.288000000000004,6527
543210.055,303559.522,42.537,6527
543212.346,303557.777,42.554,6527
543214.813,303555.905,42.737,6527
543216.988,303554.259,42.898,6527
543219.278,303552.518,42.914,6527
543221.631,303550.73600000003,43.105000000000004,6527
543223.9450000001,303548.971,43.183,6527
543226.324,303547.169,43.38,6527
543228.589,303545.453,43.525,6527
543230.85,303543.737,43.672000000000004,6527
543208.285,303562.767,42.344,6527
543210.549,303561.044,42.33,6527
543212.876,303559.289,42.550000000000004,6527
543215.167,303557.553,42.777,6527
543217.476,303555.791,42.829,6527
543219.828,303554.006,42.911,6527
543222.208,303552.197,43.029,6527
543224.459,303550.482,43.124,6527
543226.724,303548.766,43.249,6527
543229.037,303547.007,43.469,6527
543231.416,303545.202,43.653,6527
543211.252,303561.794,42.353,6527
543213.644,303559.992,42.642,6527
543215.895,303558.273,42.695,6527
543218.2220000001,303556.511,42.809,6527
543220.536,303554.752,42.973,6527
543222.761,303553.05,42.944,6527
543225.232,303551.179,43.138,6527
543227.519,303549.443,43.318,6527
543229.784,303547.724,43.413000000000004,6527
543212.753,303562.577,42.435,6527
543215.017,303560.86100000003,42.573,6527
543217.1900000001,303559.211,42.681,6527
543219.5430000001,303557.429,42.875,6527
543221.795,303555.713,42.96,6527
543224.148,303553.925,43.055,6527
543226.465,303552.163,43.121,6527
543216.71,303561.984,42.533,6527
543219.001,303560.245,42.7,6527
543221.135,303558.621,42.769,6527
543223.488,303556.839,42.963,6527
543219.776,303562.3,42.677,6527
543165.245,303520.708,42.436,6527
543162.442,303521.166,42.39,6527
543159.458,303521.655,42.299,6527
543156.576,303522.124,42.184,6527
543174.509,303520.902,42.663000000000004,6527
543171.781,303521.347,42.551,6527
543168.974,303521.806,42.476,6527
543166.145,303522.271,42.417,6527
543163.302,303522.733,42.223,6527
543160.42,303523.202,42.2,6527
543157.617,303523.661,42.095,6527
543185.0380000001,303520.897,42.978,6527
543182.31,303521.342,42.886,6527
543179.507,303521.801,42.768,6527
543176.559,303522.28,42.64,6527
543173.677,303522.749,42.551,6527
543170.808,303523.221,42.505,6527
543167.929,303523.68700000003,42.348,6527
543165.162,303524.142,42.315,6527
543162.28,303524.614,42.256,6527
543159.552,303525.059,42.118,6527
543191.84,303520.826,43.165,6527
543188.961,303521.295,43.050000000000004,6527
543186.167,303521.754,42.958,6527
543183.246,303522.229,42.843,6527
543180.302,303522.70900000003,42.722,6527
543177.42,303523.181,42.696,6527
543174.692,303523.626,42.584,6527
543171.708,303524.112,42.364000000000004,6527
543168.865,303524.577,42.43,6527
543165.957,303525.054,42.325,6527
543163.075,303525.526,42.269,6527
543160.232,303525.985,42.075,6527
543196.183,303520.635,43.201,6527
543193.3150000001,303521.107,43.207,6527
543190.587,303521.552,43.096000000000004,6527
543187.783,303522.007,42.988,6527
543184.862,303522.48600000003,42.938,6527
543182.032,303522.946,42.787,6527
543179.111,303523.425,42.751,6527
543176.308,303523.88,42.614000000000004,6527
543173.324,303524.366,42.512,6527
543170.416,303524.842,42.39,6527
543167.789,303525.27,42.308,6527
543164.691,303525.776,42.272,6527
543161.924,303526.22500000003,42.131,6527
543159.015,303526.71,42.331,6527
543205.769,303520.474,43.509,6527
543202.785,303520.963,43.519,6527
543199.978,303521.419,43.368,6527
543197.034,303521.898,43.214,6527
543194.152,303522.37,43.148,6527
543191.358,303522.825,43.066,6527
543188.555,303523.281,42.945,6527
543185.827,303523.726,42.827,6527
543182.984,303524.188,42.719,6527
543180.116,303524.66000000003,42.709,6527
543177.27,303525.12200000003,42.564,6527
543174.427,303525.58400000003,42.482,6527
543171.5970000001,303526.053,42.535000000000004,6527
543168.637,303526.532,42.335,6527
543165.692,303527.015,42.249,6527
543162.964,303527.46,42.154,6527
543160.056,303527.945,42.479,6527
543219.2980000001,303520.809,43.928000000000004,6527
543216.609,303521.24700000003,43.804,6527
543213.688,303521.723,43.749,6527
543210.822,303522.188,43.598,6527
543208.055,303522.64,43.581,6527
543204.993,303523.143,43.496,6527
543202.1240000001,303523.609,43.362,6527
543199.356,303524.06,43.273,6527
543196.438,303524.53,43.06,6527
543193.72,303524.981,43.165,6527
543190.648,303525.477,42.951,6527
543187.818,303525.94,42.797000000000004,6527
543185.051,303526.391,42.794000000000004,6527
543182.054,303526.877,42.63,6527
543179.441,303527.305,42.558,6527
543176.497,303527.78500000003,42.476,6527
543173.769,303528.23,42.42,6527
543170.962,303528.688,42.338,6527
543167.903,303529.185,42.167,6527
543165.277,303529.613,42.154,6527
543162.267,303530.112,42.203,6527
543228.938,303521.129,43.79,6527
543226.03,303521.608,43.817,6527
543223.236,303522.07,43.882,6527
543220.328,303522.552,43.981,6527
543217.6,303522.99700000003,43.88,6527
543214.833,303523.443,43.736000000000004,6527
543212.003,303523.905,43.634,6527
543209.121,303524.374,43.499,6527
543206.252,303524.846,43.483000000000004,6527
543203.449,303525.304,43.385,6527
543200.567,303525.77,43.230000000000004,6527
543197.6190000001,303526.253,43.138,6527
543194.714,303526.72500000003,43.050000000000004,6527
543191.908,303527.184,42.951,6527
543189.104,303527.639,42.824,6527
543186.196,303528.115,42.738,6527
543183.2390000001,303528.594,42.633,6527
543180.471,303529.04600000003,42.492000000000004,6527
543177.563,303529.521,42.433,6527
543174.734,303529.987,42.449,6527
543171.953,303530.435,42.253,6527
543169.1240000001,303530.901,42.194,6527
543166.343,303531.349,42.03,6527
543163.487,303531.828,42.24,6527
543229.299,303522.355,43.856,6527
543226.352,303522.837,43.826,6527
543223.558,303523.302,43.925000000000004,6527
543220.676,303523.771,43.905,6527
543217.692,303524.257,43.808,6527
543214.965,303524.699,43.69,6527
543212.096,303525.17100000003,43.581,6527
543209.289,303525.63,43.624,6527
543206.564,303526.071,43.398,6527
543203.656,303526.547,43.348,6527
543200.889,303526.996,43.237,6527
543197.944,303527.47500000003,43.06,6527
543195.138,303527.93,42.948,6527
543192.295,303528.396,42.879,6527
543189.236,303528.892,42.768,6527
543186.482,303529.344,42.761,6527
543183.715,303529.79600000003,42.702,6527
543180.679,303530.288,42.538000000000004,6527
543177.911,303530.737,42.427,6527
543174.8910000001,303531.23,42.299,6527
543172.085,303531.688,42.230000000000004,6527
543169.291,303532.14400000003,42.171,6527
543166.449,303532.606,42.033,6527
543230.636,303524.264,43.77,6527
543227.688,303524.746,43.786,6527
543224.78,303525.228,43.921,6527
543221.977,303525.68700000003,43.878,6527
543219.147,303526.14900000003,43.794000000000004,6527
543216.34,303526.604,43.682,6527
543213.357,303527.094,43.61,6527
543210.514,303527.556,43.525,6527
543207.684,303528.015,43.292,6527
543204.802,303528.487,43.256,6527
543202.074,303528.93200000003,43.197,6527
543199.206,303529.39400000003,43.0,6527
543196.478,303529.839,42.964,6527
543193.596,303530.308,42.816,6527
543190.648,303530.791,42.800000000000004,6527
543187.884,303531.239,42.635,6527
543184.976,303531.712,42.563,6527
543182.015,303532.197,42.550000000000004,6527
543179.149,303532.663,42.317,6527
543176.4180000001,303533.108,42.248,6527
543173.5,303533.58,42.134,6527
543170.631,303534.053,42.117,6527
543167.67,303534.532,41.973,6527
543231.68,303526.729,43.684,6527
543228.732,303527.215,43.796,6527
543225.903,303527.683,43.904,6527
543223.149,303528.13800000004,43.914,6527
543220.086,303528.635,43.767,6527
543217.2440000001,303529.093,43.603,6527
543214.4400000001,303529.552,43.574,6527
543211.571,303530.021,43.439,6527
543208.804,303530.466,43.265,6527
543205.706,303530.976,43.21,6527
543202.978,303531.418,43.082,6527
543200.109,303531.887,42.980000000000004,6527
543197.187,303532.362,42.908,6527
543194.535,303532.794,42.773,6527
543191.551,303533.28,42.665,6527
543187.338,303533.963,42.448,6527
543184.61,303534.408,42.422000000000004,6527
543181.666,303534.89,42.383,6527
543178.859,303535.346,42.248,6527
543175.951,303535.821,42.160000000000004,6527
543172.931,303536.314,42.061,6527
543170.226,303536.752,41.95,6527
543230.8740000001,303528.217,43.809,6527
543228.084,303528.679,43.878,6527
543225.202,303529.154,43.884,6527
543222.409,303529.609,43.829,6527
543219.487,303530.082,43.646,6527
543216.658,303530.544,43.564,6527
543213.776,303531.01300000004,43.489000000000004,6527
543210.753,303531.506,43.354,6527
543208.064,303531.944,43.233000000000004,6527
543205.1950000001,303532.413,43.115,6527
543202.277,303532.885,42.980000000000004,6527
543199.405,303533.357,42.918,6527
543196.526,303533.82300000003,42.747,6527
543193.693,303534.288,42.734,6527
543190.851,303534.751,42.622,6527
543188.047,303535.20900000003,42.576,6527
543185.214,303535.67100000003,42.471000000000004,6527
543182.447,303536.123,42.416000000000004,6527
543179.644,303536.579,42.219,6527
543176.699,303537.061,42.258,6527
543173.857,303537.523,42.055,6527
543170.975,303537.992,41.992,6527
543229.121,303528.732,43.819,6527
543226.328,303529.194,43.901,6527
543223.561,303529.646,43.835,6527
543220.757,303530.098,43.684,6527
543217.787,303530.587,43.639,6527
543215.056,303531.03500000003,43.669000000000004,6527
543212.177,303531.498,43.393,6527
543209.269,303531.973,43.334,6527
543206.465,303532.429,43.2,6527
543203.3640000001,303532.935,43.124,6527
543200.675,303533.377,43.082,6527
543197.832,303533.832,42.852000000000004,6527
543194.924,303534.308,42.744,6527
543192.042,303534.777,42.645,6527
543189.137,303535.249,42.521,6527
543186.291,303535.715,42.439,6527
543183.488,303536.17,42.386,6527
543180.655,303536.635,42.327,6527
543177.927,303537.08,42.232,6527
543175.0480000001,303537.54600000003,42.078,6527
543172.202,303538.015,42.107,6527
543169.382,303538.487,42.36,6527
543231.325,303529.015,43.829,6527
543228.456,303529.487,43.898,6527
543225.613,303529.949,43.812,6527
543222.666,303530.43200000003,43.75,6527
543219.863,303530.89,43.678000000000004,6527
543217.095,303531.339,43.538000000000004,6527
543214.341,303531.791,43.492000000000004,6527
543211.459,303532.256,43.384,6527
543208.616,303532.719,43.236000000000004,6527
543205.787,303533.181,43.075,6527
543202.905,303533.65,43.036,6527
543200.062,303534.109,42.842,6527
543197.154,303534.58400000003,42.777,6527
543194.17,303535.07,42.613,6527
543191.403,303535.522,42.642,6527
543188.56,303535.984,42.481,6527
543185.731,303536.449,42.442,6527
543182.809,303536.922,42.337,6527
543179.927,303537.391,42.219,6527
543177.098,303537.853,42.17,6527
543174.255,303538.318,42.038000000000004,6527
543171.488,303538.767,41.933,6527
543230.2440000001,303531.646,43.855000000000004,6527
543227.591,303532.081,43.858000000000004,6527
543224.568,303532.574,43.796,6527
543221.725,303533.033,43.645,6527
543218.856,303533.502,43.584,6527
543215.909,303533.984,43.515,6527
543213.184,303534.426,43.315,6527
543210.302,303534.892,43.223,6527
543207.574,303535.337,43.131,6527
543204.768,303535.795,43.082,6527
543201.823,303536.271,42.888,6527
543199.056,303536.723,42.868,6527
543196.112,303537.202,42.691,6527
543193.2660000001,303537.664,42.616,6527
543190.4230000001,303538.127,42.517,6527
543187.3640000001,303538.626,42.409,6527
543184.711,303539.058,42.34,6527
543181.8420000001,303539.526,42.252,6527
543178.921,303540.002,42.156,6527
543176.078,303540.461,42.009,6527
543173.095,303540.947,41.910000000000004,6527
543231.363,303533.487,43.868,6527
543228.455,303533.95900000003,43.783,6527
543225.547,303534.435,43.701,6527
543222.779,303534.88800000004,43.635,6527
543219.937,303535.35000000003,43.551,6527
543217.068,303535.815,43.482,6527
543214.123,303536.298,43.344,6527
543211.241,303536.76,43.167,6527
543208.408,303537.226,43.174,6527
543205.566,303537.688,42.97,6527
543202.762,303538.143,42.872,6527
543199.92,303538.605,42.793,6527
543197.152,303539.047,42.508,6527
543194.323,303539.51300000004,42.488,6527
543191.401,303539.988,42.465,6527
543188.598,303540.444,42.334,6527
543185.651,303540.93,42.366,6527
543182.746,303541.402,42.196,6527
543179.9,303541.864,42.137,6527
543177.096,303542.319,42.015,6527
543174.149,303542.802,41.989000000000004,6527
543230.84,303534.84500000003,43.878,6527
543227.932,303535.317,43.747,6527
543225.089,303535.78,43.583,6527
543222.26,303536.245,43.629,6527
543219.197,303536.744,43.557,6527
543216.5480000001,303537.173,43.4,6527
543213.666,303537.642,43.311,6527
543210.797,303538.104,43.134,6527
543207.954,303538.569,43.006,6527
543204.971,303539.059,42.99,6527
543202.164,303539.511,42.852000000000004,6527
543199.334,303539.973,42.734,6527
543196.492,303540.435,42.668,6527
543193.764,303540.877,42.54,6527
543190.8420000001,303541.352,42.403,6527
543188.075,303541.804,42.37,6527
543185.17,303542.277,42.294000000000004,6527
543182.2880000001,303542.742,42.111000000000004,6527
543179.481,303543.19800000003,42.055,6527
543176.458,303543.69,41.93,6527
543230.511,303536.386,43.796,6527
543227.822,303536.824,43.75,6527
543224.914,303537.297,43.625,6527
543221.956,303537.776,43.517,6527
543219.228,303538.218,43.397,6527
543216.281,303538.7,43.328,6527
543213.336,303539.176,43.124,6527
543210.4940000001,303539.642,43.144,6527
543207.7660000001,303540.083,42.947,6527
543204.743,303540.579,42.96,6527
543201.949,303541.031,42.836,6527
543199.031,303541.504,42.708,6527
543196.123,303541.976,42.557,6527
543193.3200000001,303542.431,42.452,6527
543190.552,303542.88300000003,42.396,6527
543187.785,303543.332,42.298,6527
543184.942,303543.794,42.134,6527
543182.034,303544.27,42.134,6527
543179.231,303544.722,41.947,6527
543176.385,303545.18700000003,41.92,6527
543228.713,303539.772,43.642,6527
543225.848,303540.238,43.514,6527
543223.041,303540.696,43.492000000000004,6527
543220.313,303541.13800000004,43.374,6527
543217.405,303541.607,43.229,6527
543214.562,303542.069,43.137,6527
543211.693,303542.538,43.078,6527
543208.775,303543.011,42.836,6527
543205.942,303543.473,42.832,6527
543202.959,303543.962,42.809,6527
543200.332,303544.38300000003,42.672000000000004,6527
543197.309,303544.876,42.557,6527
543194.4670000001,303545.338,42.468,6527
543191.598,303545.804,42.304,6527
543188.64,303546.283,42.225,6527
543185.873,303546.732,42.163000000000004,6527
543183.03,303547.191,41.973,6527
543180.24,303547.64900000003,41.887,6527
543177.483,303548.114,42.37,6527
543231.438,303539.328,43.75,6527
543196.486,303546.944,42.442,6527
543193.719,303547.389,42.275,6527
543190.915,303547.848,42.219,6527
543188.007,303548.324,42.235,6527
543185.046,303548.8,42.071,6527
543182.204,303549.265,41.976,6527
543179.348,303549.744,42.261,6527
543230.772,303541.368,43.661,6527
543227.811,303541.847,43.612,6527
543225.0210000001,303542.302,43.52,6527
543222.1,303542.775,43.364000000000004,6527
543219.372,303543.22000000003,43.302,6527
543216.604,303543.665,43.098,6527
543213.736,303544.134,43.032000000000004,6527
543210.932,303544.589,42.895,6527
543208.024,303545.065,42.872,6527
543205.221,303545.52400000003,42.793,6527
543202.339,303545.983,42.465,6527
543199.355,303546.472,42.491,6527
543231.702,303541.963,43.707,6527
543228.8200000001,303542.43200000003,43.573,6527
543225.951,303542.9,43.51,6527
543223.109,303543.359,43.422000000000004,6527
543220.086,303543.855,43.341,6527
543217.358,303544.291,43.065,6527
543214.45,303544.77,43.042,6527
543211.686,303545.218,42.924,6527
543208.958,303545.663,42.911,6527
543206.01,303546.142,42.754,6527
543203.282,303546.587,42.655,6527
543200.325,303547.067,42.504,6527
543197.531,303547.522,42.462,6527
543194.728,303547.977,42.334,6527
543191.665,303548.477,42.275,6527
543188.823,303548.93200000003,42.055,6527
543186.019,303549.398,42.114000000000004,6527
543183.15,303549.863,42.012,6527
543180.383,303550.315,42.009,6527
543231.242,303542.418,43.681,6527
543228.334,303542.884,43.491,6527
543225.35,303543.37,43.33,6527
543222.622,303543.815,43.281,6527
543219.78,303544.277,43.249,6527
543216.95,303544.739,43.098,6527
543213.888,303545.235,42.983000000000004,6527
543211.084,303545.694,42.980000000000004,6527
543208.278,303546.14900000003,42.862,6527
543205.409,303546.615,42.652,6527
543202.681,303547.06,42.655,6527
543199.763,303547.533,42.56,6527
543197.035,303547.974,42.386,6527
543194.166,303548.443,42.271,6527
543191.205,303548.922,42.193,6527
543188.477,303549.364,42.091,6527
543185.4180000001,303549.867,42.045,6527
543182.549,303550.333,41.966,6527
543179.752,303550.804,42.321,6527
543229.402,303544.417,43.52,6527
543226.4940000001,303544.893,43.435,6527
543223.652,303545.355,43.386,6527
543220.707,303545.83400000003,43.302,6527
543217.746,303546.30700000003,43.036,6527
543215.133,303546.738,43.055,6527
543212.074,303547.231,42.878,6527
543209.2710000001,303547.686,42.786,6527
543206.363,303548.162,42.668,6527
543203.415,303548.641,42.56,6527
543200.713,303549.079,42.498,6527
543197.808,303549.552,42.314,6527
543195.077,303549.99700000003,42.294000000000004,6527
543192.274,303550.452,42.193,6527
543189.326,303550.935,42.117,6527
543186.598,303551.377,42.015,6527
543183.6410000001,303551.852,41.851,6527
543231.111,303546.021,43.517,6527
543228.383,303546.466,43.438,6527
543225.577,303546.918,43.268,6527
543222.557,303547.409,43.146,6527
543219.865,303547.847,43.065,6527
543216.881,303548.333,43.046,6527
543213.937,303548.815,42.937,6527
543211.091,303549.27400000003,42.865,6527
543208.301,303549.733,42.77,6527
543205.38,303550.202,42.576,6527
543202.55,303550.664,42.508,6527
543199.5920000001,303551.14,42.38,6527
543196.76,303551.605,42.334,6527
543193.878,303552.071,42.163000000000004,6527
543191.15,303552.516,42.143,6527
543188.346,303552.972,42.015,6527
543185.504,303553.434,41.996,6527
543182.71,303553.89900000003,42.222,6527
543229.965,303547.658,43.53,6527
543227.312,303548.086,43.379,6527
543224.43,303548.552,43.278,6527
543221.627,303549.004,43.077,6527
543218.873,303549.455,43.023,6527
543215.811,303549.952,42.937,6527
543213.122,303550.39,42.786,6527
543210.201,303550.866,42.816,6527
543207.181,303551.352,42.563,6527
543204.453,303551.794,42.462,6527
543201.584,303552.266,42.435,6527
543198.702,303552.731,42.344,6527
543195.859,303553.194,42.216,6527
543192.797,303553.69,42.127,6527
543190.108,303554.128,42.022,6527
543187.161,303554.607,41.917,6527
543184.433,303555.049,41.786,6527
543197.656,303554.374,42.274,6527
543194.928,303554.816,42.113,6527
543192.046,303555.28500000003,42.116,6527
543189.2170000001,303555.743,41.972,6527
543186.295,303556.216,41.827,6527
543229.034,303549.28,43.398,6527
543226.129,303549.749,43.267,6527
543223.323,303550.204,43.155,6527
543220.555,303550.653,43.048,6527
543217.791,303551.101,42.923,6527
543214.9450000001,303551.564,42.864000000000004,6527
543212.116,303552.026,42.674,6527
543209.273,303552.485,42.621,6527
543206.3910000001,303552.953,42.562,6527
543203.588,303553.402,42.300000000000004,6527
543200.64,303553.891,42.388,6527
543226.725,303552.115,43.208,6527
543223.781,303552.591,43.044000000000004,6527
543220.938,303553.05,42.874,6527
543217.991,303553.532,42.910000000000004,6527
543215.187,303553.984,42.759,6527
543212.459,303554.426,42.595,6527
543209.653,303554.885,42.582,6527
543206.885,303555.33,42.454,6527
543203.941,303555.81200000003,42.375,6527
543201.134,303556.268,42.31,6527
543198.344,303556.723,42.257,6527
543195.383,303557.199,42.083,6527
543192.541,303557.658,41.916000000000004,6527
543189.518,303558.154,41.952,6527
543186.803,303558.612,42.251,6527
543224.01,303554.944,42.986000000000004,6527
543221.128,303555.41000000003,42.871,6527
543218.259,303555.879,42.785000000000004,6527
543215.275,303556.363,42.703,6527
543212.469,303556.818,42.605000000000004,6527
543209.561,303557.29,42.487,6527
543206.872,303557.732,42.461,6527
543204.069,303558.181,42.228,6527
543201.187,303558.65,42.169000000000004,6527
543198.344,303559.109,42.073,6527
543195.511,303559.571,42.037,6527
543192.708,303560.026,41.926,6527
543189.786,303560.502,41.814,6527
543223.192,303556.55700000003,42.986000000000004,6527
543220.31,303557.02,42.799,6527
543217.507,303557.476,42.733000000000004,6527
543214.677,303557.938,42.628,6527
543211.6900000001,303558.424,42.552,6527
543208.8470000001,303558.886,42.454,6527
543205.979,303559.352,42.349000000000004,6527
543203.06,303559.821,42.172000000000004,6527
543200.408,303560.256,42.133,6527
543197.526,303560.721,42.037,6527
543194.759,303561.17,41.978,6527
543191.929,303561.632,41.864000000000004,6527
543222.299,303557.567,42.834,6527
543219.495,303558.026,42.742000000000004,6527
543216.508,303558.509,42.64,6527
543213.564,303558.991,42.676,6527
543210.836,303559.429,42.401,6527
543207.954,303559.898,42.292,6527
543205.1240000001,303560.36100000003,42.279,6527
543202.164,303560.84,42.122,6527
543199.334,303561.302,42.092,6527
543196.452,303561.771,42.043,6527
543193.609,303562.23,41.872,6527
543190.8910000001,303562.691,42.342,6527
543221.456,303558.908,42.758,6527
543218.4720000001,303559.39400000003,42.696,6527
543215.603,303559.862,42.624,6527
543212.876,303560.304,42.509,6527
543209.852,303560.797,42.42,6527
543207.01,303561.256,42.309,6527
543204.062,303561.735,42.223,6527
543201.334,303562.18,42.112,6527
543198.416,303562.652,42.066,6527
543195.508,303563.128,41.984,6527
543220.385,303560.41000000003,42.696,6527
543217.617,303560.859,42.633,6527
543214.735,303561.324,42.486000000000004,6527
543211.932,303561.776,42.351,6527
543209.063,303562.245,42.299,6527
543206.181,303562.714,42.217,6527
543203.388,303563.166,42.132,6527
543218.019,303561.991,42.545,6527
543215.33,303562.426,42.522,6527
543212.484,303562.88800000004,42.391,6527
543233.0430000001,303523.254,43.74,6527
543231.822,303526.224,43.704,6527
543234.162,303524.435,43.701,6527
543233.805,303524.875,43.704,6527
543233.5380000001,303525.764,43.661,6527
543235.917,303523.953,43.655,6527
543232.416,303528.629,43.815,6527
543234.707,303526.887,43.812,6527
543237.086,303525.072,43.76,6527
543233.508,303530.127,43.812,6527
543235.796,303528.378,43.701,6527
543238.139,303526.586,43.632,6527
543232.194,303532.61100000003,43.858000000000004,6527
543234.534,303530.816,43.707,6527
543236.632,303529.206,43.678000000000004,6527
543239.076,303527.352,43.707,6527
543231.98,303534.471,43.857,6527
543234.268,303532.72500000003,43.811,6527
543236.611,303530.933,43.667,6527
543238.774,303529.28,43.69,6527
543232.589,303536.58,43.811,6527
543234.778,303534.904,43.811,6527
543237.246,303533.023,43.749,6527
543239.471,303531.32,43.716,6527
543232.425,303539.545,43.818,6527
543234.628,303537.87200000003,43.857,6527
543236.905,303536.12,43.631,6527
543239.258,303534.335,43.732,6527
543232.252,303540.64400000003,43.788000000000004,6527
543234.5920000001,303538.856,43.808,6527
543236.882,303537.114,43.801,6527
543233.863,303540.154,43.804,6527
543236.229,303538.346,43.81,6527
543233.167,303541.972,43.705,6527
543231.846,303520.647,43.636,6527
543231.952,303521.916,43.738,6527
543233.508,303523.788,43.629,6527
543237.355,303525.798,43.717,6527
543234.408,303526.281,43.661,6527
543239.242,303526.848,43.842,6527
543236.474,303527.293,43.668,6527
543233.707,303527.751,43.730000000000004,6527
543237.705,303527.316,43.668,6527
543234.872,303527.781,43.619,6527
543231.889,303528.277,43.789,6527
543239.909,303527.609,43.888,6527
543236.987,303528.078,43.707,6527
543234.273,303528.523,43.661,6527
543239.004,303530.2,43.619,6527
543236.096,303530.68200000003,43.724000000000004,6527
543233.188,303531.161,43.799,6527
543239.907,303532.077,43.642,6527
543237.075,303532.549,43.77,6527
543234.232,303533.011,43.78,6527
543239.309,303533.452,43.717,6527
543236.555,303533.908,43.786,6527
543233.607,303534.393,43.875,6527
543236.225,303535.449,43.77,6527
543233.343,303535.92100000003,43.809,6527
543234.386,303538.849,43.806,6527
543233.6410000001,303540.89900000003,43.78,6527
543234.457,303541.511,43.727000000000004,6527
543234.085,303541.953,43.743,6527
543232.232,303543.955,43.553000000000004,6527
542696.951,303513.528,27.346,6527
542699.228,303511.78,27.303,6527
542701.66,303509.919,27.241,6527
542691.7490000001,303519.93,27.336000000000002,6527
542694.219,303518.042,27.353,6527
542696.598,303516.221,27.382,6527
542698.85,303514.499,27.376,6527
542701.216,303512.685,27.29,6527
542694.147,303520.373,27.349,6527
542696.487,303518.578,27.330000000000002,6527
542698.79,303516.806,27.326,6527
542701.196,303514.965,27.323,6527
542696.183,303520.037,27.369,6527
542698.435,303518.314,27.336000000000002,6527
542700.765,303516.523,27.218,6527
542703.154,303514.699,27.428,6527
542701.273,303520.435,27.369,6527
542699.809,303519.288,27.287,6527
542702.113,303517.523,27.162,6527
542701.448,303511.927,27.374000000000002,6527
542698.681,303512.385,27.318,6527
542701.622,303510.688,27.413,6527
542700.616,303512.778,27.344,6527
542697.76,303513.256,27.413,6527
542702.361,303513.987,27.298000000000002,6527
542699.709,303514.428,27.321,6527
542696.686,303514.931,27.302,6527
542700.764,303515.909,27.321,6527
542697.856,303516.39400000003,27.364,6527
542695.013,303516.86,27.292,6527
542700.623,303517.357,27.361,6527
542697.754,303517.832,27.351,6527
542694.8200000001,303518.321,27.466,6527
542691.875,303518.8,27.279,6527
542701.51,303518.865,27.284,6527
542698.654,303519.34,27.415,6527
542695.799,303519.809,27.317,6527
542692.89,303520.294,27.330000000000002,6527
542708.59,303504.623,27.454,6527
542703.986,303508.14400000003,27.399,6527
542706.264,303506.398,27.336000000000002,6527
542703.4940000001,303510.936,27.281,6527
542705.8470000001,303509.141,27.376,6527
542708.317,303507.257,27.356,6527
542703.602,303513.128,27.277,6527
542705.7880000001,303511.44800000003,27.267,6527
542708.193,303509.607,27.336000000000002,6527
542710.47,303507.862,27.264,6527
542711.385,303510.433,27.366,6527
542705.37,303513.0,27.333000000000002,6527
542707.863,303511.092,27.313,6527
542710.268,303509.251,27.353,6527
542703.459,303518.756,27.330000000000002,6527
542705.802,303516.964,27.310000000000002,6527
542708.08,303515.219,27.271,6527
542710.341,303513.494,27.336000000000002,6527
542712.71,303511.679,27.323,6527
542704.479,303515.722,27.431,6527
542706.783,303513.957,27.261,6527
542709.159,303512.135,27.392,6527
542704.154,303519.664,27.271,6527
542706.4450000001,303517.912,27.389,6527
542708.785,303516.12,27.326,6527
542711.062,303514.375,27.287,6527
542713.34,303512.629,27.29,6527
542704.81,303519.289,27.386,6527
542707.202,303517.454,27.241,6527
542709.493,303515.702,27.323,6527
542711.898,303513.864,27.349,6527
542714.199,303512.09500000003,27.330000000000002,6527
542706.522,303519.215,27.359,6527
542708.865,303517.42,27.303,6527
542711.127,303515.695,27.372,6527
542713.61,303513.791,27.32,6527
542710.676,303518.821,27.3,6527
542712.836,303517.165,27.323,6527
542715.241,303515.327,27.336000000000002,6527
542712.534,303519.54600000003,27.3,6527
542714.851,303517.77400000003,27.369,6527
542717.191,303515.983,27.369,6527
542714.0210000001,303519.587,27.435000000000002,6527
542716.387,303517.772,27.399,6527
542718.628,303516.05,27.281,6527
542715.613,303520.297,27.346,6527
542717.953,303518.505,27.284,6527
