353763.484,165780.5,31.289,6527
353761.692,165779.309,31.42,6527
353759.995,165778.173,31.552,6527
353758.23600000003,165777.008,31.653000000000002,6527
353756.543,165775.878,31.746000000000002,6527
353754.718,165774.661,31.900000000000002,6527
353767.102,165784.274,31.067,6527
353765.408,165783.145,31.116,6527
353763.679,165781.99300000002,31.247,6527
353761.884,165780.801,31.408,6527
353760.25,165779.711,31.513,6527
353758.458,165778.52,31.654,6527
353756.762,165777.384,31.779,6527
353755.032,165776.238,31.887,6527
353753.309,165775.089,31.996000000000002,6527
353751.643,165773.982,32.092,6527
353772.337,165784.321,30.761,6527
353770.703,165783.237,30.849,6527
353768.84500000003,165782.0,31.0,6527
353767.218,165780.916,31.056,6527
353765.422,165779.718,31.207,6527
353763.663,165778.547,31.322,6527
353761.934,165777.39800000002,31.453,6527
353760.172,165776.219,31.611,6527
353758.597,165775.17500000002,31.748,6527
353756.815,165773.99,31.778000000000002,6527
353755.155,165772.88,31.881,6527
353753.32300000003,165771.662,32.087,6527
353753.02,165773.532,32.024,6527
353765.473,165777.366,31.348,6527
353763.75,165776.22400000002,31.397000000000002,6527
353762.054,165775.094,31.522000000000002,6527
353760.252,165773.89,31.729,6527
353758.59500000003,165772.796,31.758,6527
353756.77,165771.579,31.909,6527
353775.822,165784.256,30.636,6527
353774.129,165783.12900000002,30.689,6527
353772.363,165781.954,30.843,6527
353770.666,165780.828,30.922,6527
353768.907,165779.66,31.04,6527
353767.201,165778.52,31.237000000000002,6527
353780.749,165784.979,30.233,6527
353779.04600000003,165783.846,30.397000000000002,6527
353777.254,165782.655,30.518,6527
353775.583,165781.539,30.649,6527
353773.821,165780.367,30.804000000000002,6527
353772.125,165779.237,30.889,6527
353770.39900000003,165778.092,30.964000000000002,6527
353768.669,165776.94,31.112000000000002,6527
353767.026,165775.843,31.305,6527
353765.28,165774.688,31.289,6527
353763.603,165773.568,31.509,6527
353761.847,165772.396,31.614,6527
353760.157,165771.28,31.643,6527
353758.487,165770.157,31.848,6527
353777.989,165784.633,30.472,6527
353776.381,165783.556,30.639,6527
353774.619,165782.381,30.754,6527
353772.955,165781.28100000002,30.830000000000002,6527
353771.262,165780.158,30.892,6527
353769.467,165778.953,31.082,6527
353767.856,165777.882,31.233,6527
353766.071,165776.698,31.289,6527
353764.407,165775.58800000002,31.424,6527
353762.652,165774.423,31.506,6527
353760.919,165773.267,31.653000000000002,6527
353759.157,165772.095,31.801000000000002,6527
353757.431,165770.95,31.922,6527
353783.829,165784.664,30.118000000000002,6527
353782.03,165783.46600000001,30.321,6527
353780.455,165782.422,30.407,6527
353778.604,165781.191,30.495,6527
353776.931,165780.075,30.672,6527
353775.178,165778.91,30.712,6527
353773.406,165777.728,30.918,6527
353771.746,165776.628,30.981,6527
353769.92100000003,165775.411,31.109,6527
353768.32,165774.346,31.207,6527
353766.462,165773.109,31.358,6527
353764.86100000003,165772.045,31.461000000000002,6527
353763.076,165770.86000000002,31.513,6527
353761.373,165769.72400000002,31.694,6527
353759.71,165768.614,31.805,6527
353781.303,165780.383,30.416,6527
353779.607,165779.257,30.508,6527
353777.815,165778.063,30.63,6527
353776.141,165776.95,30.797,6527
353774.451,165775.827,30.826,6527
353772.719,165774.674,30.974,6527
353771.022,165773.545,31.089000000000002,6527
353769.227,165772.354,31.223,6527
353767.59,165771.263,31.358,6527
353765.765,165770.052,31.486,6527
353764.105,165768.946,31.561,6527
353762.316,165767.751,31.683,6527
353760.616,165766.625,31.837,6527
353788.298,165785.04,29.901,6527
353786.582,165783.891,30.151,6527
353784.83,165782.726,30.197,6527
353783.103,165781.583,30.256,6527
353790.62,165784.977,29.839000000000002,6527
353789.012,165783.90600000002,29.973,6527
353787.256,165782.741,30.033,6527
353785.517,165781.582,30.242,6527
353783.847,165780.472,30.344,6527
353782.058,165779.28100000002,30.423000000000002,6527
353780.382,165778.164,30.617,6527
353778.60000000003,165776.98,30.669,6527
353776.995,165775.915,30.754,6527
353775.177,165774.704,30.856,6527
353773.441,165773.552,31.0,6527
353771.741,165772.416,31.158,6527
353769.92,165771.212,31.233,6527
353768.223,165770.079,31.371000000000002,6527
353766.468,165768.911,31.463,6527
353764.857,165767.84,31.624000000000002,6527
353763.141,165766.701,31.643,6527
353761.368,165765.509,32.181,6527
353792.322,165784.486,29.937,6527
353790.609,165783.353,29.888,6527
353788.933,165782.237,30.049,6527
353787.203,165781.08800000002,30.141000000000002,6527
353785.504,165779.95500000002,30.262,6527
353783.771,165778.81,30.39,6527
353782.045,165777.661,30.462,6527
353780.408,165776.57,30.561,6527
353778.612,165775.372,30.748,6527
353776.919,165774.25,30.787,6527
353771.642,165767.664,31.184,6527
353770.058,165766.606,31.394000000000002,6527
353768.21,165765.375,31.479,6527
353766.51300000004,165764.246,31.607,6527
353764.78,165763.087,32.067,6527
353775.18700000003,165773.102,30.918,6527
353773.415,165771.91700000002,31.145,6527
353771.75800000003,165770.82,31.151,6527
353769.996,165769.64800000002,31.296,6527
353768.293,165768.51200000002,31.463,6527
353766.504,165767.328,31.545,6527
353764.80700000003,165766.201,31.66,6527
353763.012,165765.00400000002,31.834,6527
353794.064,165782.566,29.793,6527
353792.249,165781.352,29.839000000000002,6527
353790.582,165780.252,29.905,6527
353788.80700000003,165779.067,30.17,6527
353787.107,165777.938,30.252,6527
353785.411,165776.808,30.347,6527
353783.62200000003,165775.624,30.416,6527
353782.011,165774.546,30.61,6527
353780.256,165773.389,30.659,6527
353778.62200000003,165772.305,30.728,6527
353776.826,165771.1,30.925,6527
353775.13300000003,165769.984,30.951,6527
353773.493,165768.89,31.129,6527
353769.234,165763.613,31.476,6527
353767.50800000003,165762.47400000002,31.548000000000002,6527
353796.72500000003,165781.862,30.548000000000002,6527
353795.032,165780.766,29.695,6527
353793.356,165779.646,29.911,6527
353791.597,165778.484,29.95,6527
353789.89400000003,165777.352,30.105,6527
353788.17100000003,165776.203,30.17,6527
353786.376,165775.01200000002,30.302,6527
353784.673,165773.886,30.416,6527
353782.91000000003,165772.708,30.561,6527
353781.191,165771.565,30.59,6527
353779.481,165770.433,30.771,6527
353777.748,165769.277,30.948,6527
353776.088,165768.174,30.988,6527
353774.329,165767.008,31.106,6527
353772.689,165765.911,31.274,6527
353770.966,165764.772,31.336000000000002,6527
353769.14900000003,165762.488,31.512,6527
353767.416,165761.32200000001,32.011,6527
353796.854,165780.903,29.724,6527
353795.043,165779.696,29.734,6527
353793.369,165778.589,29.872,6527
353791.571,165777.391,30.029,6527
353789.878,165776.268,30.105,6527
353788.204,165775.152,30.265,6527
353786.416,165773.967,30.334,6527
353784.782,165772.883,30.400000000000002,6527
353782.957,165771.674,30.518,6527
353781.29,165770.56,30.649,6527
353779.55700000003,165769.405,30.833000000000002,6527
353777.772,165768.227,30.869,6527
353776.069,165767.09100000001,31.024,6527
353774.277,165765.899,31.139,6527
353772.607,165764.786,31.316,6527
353770.881,165763.644,31.379,6527
353796.086,165778.527,29.718,6527
353794.44800000003,165777.437,29.842000000000002,6527
353792.706,165776.278,30.049,6527
353790.973,165775.12900000002,30.141000000000002,6527
353789.152,165773.918,30.262,6527
353787.488,165772.815,30.318,6527
353785.693,165771.624,30.426000000000002,6527
353783.957,165770.471,30.613,6527
353782.3,165769.36800000002,30.639,6527
353780.55700000003,165768.209,30.886,6527
353778.86100000003,165767.08000000002,30.941,6527
353777.09500000003,165765.908,31.115000000000002,6527
353775.366,165764.756,31.266000000000002,6527
353773.67600000004,165763.639,31.273,6527
353771.884,165762.448,31.427,6527
353770.155,165761.293,31.535,6527
353796.52,165775.726,29.773,6527
353794.734,165774.54200000002,29.839000000000002,6527
353793.081,165773.438,30.078,6527
353791.322,165772.27300000002,30.154,6527
353789.592,165771.124,30.233,6527
353787.93200000003,165770.021,30.288,6527
353786.104,165768.807,30.459,6527
353784.496,165767.742,30.594,6527
353782.665,165766.518,30.774,6527
353781.031,165765.434,30.863,6527
353779.242,165764.25,30.945,6527
353777.48,165763.075,31.086000000000002,6527
353775.718,165761.909,31.197,6527
353773.923,165760.712,31.391000000000002,6527
353772.325,165759.654,31.43,6527
353796.77400000003,165773.719,29.783,6527
353795.098,165772.6,29.983,6527
353793.33900000004,165771.431,30.065,6527
353791.672,165770.328,30.138,6527
353789.91000000003,165769.15600000002,30.279,6527
353788.21,165768.03,30.39,6527
353786.507,165766.894,30.538,6527
353784.754,165765.736,30.574,6527
353783.074,165764.613,30.79,6527
353781.259,165763.408,30.843,6527
353779.586,165762.298,31.01,6527
353777.853,165761.146,31.164,6527
353776.197,165760.049,31.2,6527
353774.431,165758.871,31.378,6527
353772.64900000003,165757.68,31.723,6527
353796.053,165771.717,29.931,6527
353794.291,165770.549,30.016000000000002,6527
353792.568,165769.41,30.072,6527
353790.855,165768.261,30.321,6527
353789.10000000003,165767.095,30.393,6527
353787.463,165766.01200000002,30.495,6527
353785.667,165764.82,30.626,6527
353784.053,165763.74300000002,30.830000000000002,6527
353782.304,165762.59100000001,30.817,6527
353780.578,165761.442,30.892,6527
353778.901,165760.32200000001,31.128,6527
353777.175,165759.18,31.204,6527
353775.482,165758.06,31.286,6527
353773.654,165756.83000000002,31.765,6527
353783.532,165761.001,30.830000000000002,6527
353781.802,165759.84900000002,30.945,6527
353780.076,165758.706,31.03,6527
353778.406,165757.593,31.178,6527
353776.683,165756.451,31.240000000000002,6527
353795.647,165769.046,30.033,6527
353793.98,165767.939,30.151,6527
353792.155,165766.728,30.262,6527
353790.455,165765.59900000002,30.367,6527
353788.67,165764.414,30.403000000000002,6527
353787.02,165763.31100000002,30.666,6527
353785.228,165762.126,30.767,6527
353783.049,165758.07,30.892,6527
353781.228,165756.865,31.007,6527
353779.587,165755.769,31.168,6527
353777.832,165754.61000000002,31.240000000000002,6527
353796.739,165767.159,29.977,6527
353795.165,165766.114,30.092000000000002,6527
353793.366,165764.923,30.246000000000002,6527
353791.742,165763.846,30.239,6527
353789.977,165762.674,30.400000000000002,6527
353788.181,165761.48,30.534,6527
353786.57,165760.405,30.705000000000002,6527
353784.719,165759.182,30.79,6527
353795.904,165764.34900000002,30.124000000000002,6527
353794.142,165763.181,30.223,6527
353792.442,165762.056,30.325,6527
353790.61100000003,165760.832,30.541,6527
353788.951,165759.73500000002,30.564,6527
353787.162,165758.55000000002,30.649,6527
353785.456,165757.414,30.833000000000002,6527
353783.76300000004,165756.295,30.899,6527
353782.033,165755.139,31.043,6527
353780.36,165754.026,31.214000000000002,6527
353795.58900000004,165762.301,30.131,6527
353793.794,165761.103,30.288,6527
353792.15,165760.013,30.459,6527
353790.328,165758.808,30.525000000000002,6527
353788.665,165757.698,30.613,6527
353786.866,165756.507,30.767,6527
353785.206,165755.404,30.846,6527
353783.467,165754.252,31.03,6527
353781.68200000003,165753.067,31.118000000000002,6527
353796.04600000003,165760.03,30.141000000000002,6527
353794.402,165758.934,30.325,6527
353792.64,165757.76200000002,30.452,6527
353790.946,165756.639,30.515,6527
353789.21400000004,165755.49300000002,30.669,6527
353787.504,165754.351,30.869,6527
353785.788,165753.218,30.869,6527
353784.049,165752.063,31.066,6527
353782.32300000003,165750.904,31.443,6527
353795.61100000003,165756.931,30.298000000000002,6527
353793.819,165755.747,30.393,6527
353792.119,165754.617,30.466,6527
353790.386,165753.465,30.63,6527
353788.631,165752.303,30.685000000000002,6527
353787.027,165751.239,30.813000000000002,6527
353785.231,165750.047,30.958000000000002,6527
353795.953,165754.367,30.397000000000002,6527
353794.257,165753.248,30.472,6527
353792.521,165752.092,30.63,6527
353790.739,165750.914,30.672,6527
353796.835,165753.076,30.321,6527
353795.017,165751.872,30.384,6527
353793.34,165750.752,30.6,6527
353796.877,165751.034,30.407,6527
353795.147,165749.892,30.508,6527
353737.329,165783.938,32.525,6527
353739.598,165783.359,32.321,6527
353740.572,165785.15600000002,32.233000000000004,6527
353738.967,165784.21,32.374,6527
353740.675,165782.408,32.284,6527
353741.733,165784.352,32.307,6527
353741.887,165781.255,32.242,6527
353742.934,165783.182,32.183,6527
353743.869,165784.907,32.107,6527
353742.556,165780.084,32.356,6527
353743.55100000004,165781.913,32.267,6527
353744.602,165783.85,32.119,6527
353743.76,165779.355,32.326,6527
353744.735,165781.158,32.188,6527
353745.733,165782.994,32.057,6527
353746.704,165784.79,31.998,6527
353745.657,165778.143,32.191,6527
353746.665,165780.005,32.116,6527
353747.64,165781.802,32.001,6527
353748.68700000003,165783.732,31.906000000000002,6527
353750.477,165783.753,31.853,6527
353747.527,165778.316,32.168,6527
353748.549,165780.19400000002,31.967000000000002,6527
353749.51300000004,165781.97400000002,32.007,6527
353747.337,165776.434,32.292,6527
353748.335,165778.276,32.135,6527
353749.254,165779.971,32.063,6527
353750.302,165781.908,31.958000000000002,6527
353751.24700000003,165783.639,31.826,6527
353750.452,165780.415,31.971,6527
353751.41000000003,165782.179,31.892,6527
353752.425,165784.054,31.744,6527
353749.629,165774.58800000002,32.199,6527
353750.693,165776.551,32.104,6527
353751.63800000004,165778.295,31.934,6527
353752.642,165780.13700000002,31.963,6527
353753.64,165781.986,31.796,6527
353754.601,165783.756,31.661,6527
353748.502,165776.816,32.171,6527
353749.43700000003,165778.54,32.105000000000004,6527
353752.011,165774.682,32.062,6527
353753.006,165776.511,31.98,6527
353753.977,165778.308,31.917,6527
353754.995,165780.179,31.753,6527
353755.973,165781.982,31.638,6527
353757.001,165783.877,31.573,6527
353752.137,165772.581,32.432,6527
353753.152,165774.459,32.002,6527
353754.216,165776.416,31.934,6527
353755.12200000003,165778.09100000001,31.819,6527
353756.14900000003,165779.989,31.71,6527
353757.087,165781.717,31.658,6527
353758.121,165783.621,31.514,6527
353754.233,165773.932,32.015,6527
353755.215,165775.742,31.87,6527
353756.246,165777.64,31.739,6527
353757.237,165779.469,31.664,6527
353758.229,165781.304,31.559,6527
353759.243,165783.17,31.467000000000002,6527
353760.205,165784.95,31.309,6527
353753.204,165772.03,32.093,6527
353755.207,165771.39,31.923000000000002,6527
353756.217,165773.258,31.828,6527
353757.212,165775.08800000002,31.736,6527
353758.173,165776.858,31.614,6527
353759.218,165778.782,31.552,6527
353760.14,165780.49,31.437,6527
353761.18700000003,165782.42,31.365000000000002,6527
353762.146,165784.191,31.25,6527
353756.103,165770.54,32.077,6527
353757.137,165772.44400000002,31.923000000000002,6527
353758.096,165774.22400000002,31.755,6527
353759.087,165776.047,31.752,6527
353760.05100000004,165777.825,31.588,6527
353761.075,165779.71300000002,31.549,6527
353762.053,165781.516,31.427,6527
353763.031,165783.31900000002,31.332,6527
353756.685,165769.996,32.043,6527
353757.703,165771.874,31.827,6527
353758.694,165773.71,31.735,6527
353759.64900000003,165775.467,31.695,6527
353760.664,165777.335,31.567,6527
353761.602,165779.073,31.476,6527
353762.613,165780.935,31.394000000000002,6527
353763.578,165782.718,31.223,6527
353764.57,165784.541,31.164,6527
353757.848,165769.041,31.817,6527
353758.892,165770.95500000002,31.810000000000002,6527
353759.871,165772.765,31.666,6527
353760.898,165774.662,31.594,6527
353761.853,165776.416,31.558,6527
353762.871,165778.295,31.374000000000002,6527
353763.843,165780.09100000001,31.331,6527
353764.824,165781.9,31.184,6527
353765.832,165783.76200000002,31.111,6527
353759.961,165768.363,31.869,6527
353760.919,165770.127,31.758,6527
353761.914,165771.969,31.617,6527
353762.892,165773.765,31.548000000000002,6527
353767.88300000003,165782.97400000002,31.024,6527
353768.895,165784.84900000002,30.902,6527
353766.183,165776.331,31.325,6527
353767.184,165778.17,31.2,6527
353768.175,165779.999,31.115000000000002,6527
353769.203,165781.9,31.03,6527
353770.162,165783.67,30.938000000000002,6527
353763.938,165775.69700000001,31.456,6527
353764.88300000003,165777.44400000002,31.295,6527
353765.89400000003,165779.303,31.229,6527
353766.905,165781.178,31.108,6527
353761.235,165767.191,31.810000000000002,6527
353762.243,165769.059,31.738,6527
353763.254,165770.918,31.643,6527
353764.242,165772.747,31.594,6527
353765.243,165774.589,31.446,6527
353762.666,165767.296,31.776,6527
353763.677,165769.164,31.648,6527
353764.632,165770.921,31.619,6527
353765.65,165772.809,31.416,6527
353766.678,165774.7,31.353,6527
353767.63300000003,165776.467,31.304000000000002,6527
353768.704,165778.434,31.150000000000002,6527
353769.64900000003,165780.181,31.009,6527
353770.654,165782.037,30.982,6527
353771.619,165783.82,30.828,6527
353763.07300000003,165766.121,31.737000000000002,6527
353764.088,165767.989,31.639,6527
353765.063,165769.79200000002,31.52,6527
353766.05700000003,165771.628,31.393,6527
353767.052,165773.46300000002,31.291,6527
353768.067,165775.335,31.179000000000002,6527
353769.058,165777.164,31.091,6527
353770.0,165778.905,31.002,6527
353771.028,165780.796,30.936,6527
353772.006,165782.59900000002,30.815,6527
353773.037,165784.507,30.713,6527
353764.74,165765.521,31.662,6527
353765.675,165767.239,31.655,6527
353766.68700000003,165769.114,31.527,6527
353767.632,165770.851,31.376,6527
353768.666,165772.765,31.222,6527
353769.618,165774.516,31.209,6527
353770.596,165776.325,31.055,6527
353771.594,165778.168,30.943,6527
353772.54600000003,165779.928,30.917,6527
353773.617,165781.894,30.799,6527
353774.555,165783.62900000002,30.717000000000002,6527
353766.309,165763.796,31.685000000000002,6527
353767.30100000004,165765.631,31.573,6527
353768.29600000003,165767.47400000002,31.438000000000002,6527
353769.254,165769.237,31.353,6527
353770.282,165771.132,31.284,6527
353771.24700000003,165772.909,31.143,6527
353772.238,165774.744,31.048000000000002,6527
353773.193,165776.505,30.999000000000002,6527
353774.17100000003,165778.308,30.891000000000002,6527
353775.18200000003,165780.179,30.769000000000002,6527
353776.14400000003,165781.953,30.677,6527
353777.139,165783.785,30.562,6527
353767.02400000003,165762.329,31.652,6527
353767.966,165764.06,31.553,6527
353768.977,165765.935,31.432000000000002,6527
353769.969,165767.757,31.396,6527
353770.96400000004,165769.606,31.248,6527
353772.018,165771.543,31.097,6527
353772.956,165773.28100000002,30.990000000000002,6527
353774.003,165775.208,30.931,6527
353774.925,165776.90600000002,30.855,6527
353775.973,165778.853,30.711000000000002,6527
353776.928,165780.617,30.678,6527
353777.892,165782.38700000002,30.537,6527
353778.904,165784.256,30.445,6527
353767.77,165760.847,32.203,6527
353768.781,165762.732,31.54,6527
353769.773,165764.567,31.438000000000002,6527
353770.728,165766.325,31.409,6527
353771.723,165768.16700000002,31.281000000000002,6527
353772.75,165770.058,31.202,6527
353773.712,165771.83800000002,31.068,6527
353774.746,165773.742,30.94,6527
353775.688,165775.483,30.818,6527
353776.706,165777.361,30.864,6527
353777.721,165779.236,30.743000000000002,6527
353778.689,165781.02,30.556,6527
353779.697,165782.888,30.48,6527
353780.658,165784.658,30.359,6527
353783.212,165784.58000000002,30.216,6527
353770.303,165760.748,31.517,6527
353771.25800000003,165762.511,31.435000000000002,6527
353772.289,165764.409,31.347,6527
353773.30100000004,165766.277,31.232,6527
353774.295,165768.12,31.12,6527
353775.32,165770.011,31.071,6527
353776.248,165771.726,30.900000000000002,6527
353777.279,165773.623,30.812,6527
353778.215,165775.358,30.759,6527
353779.246,165777.252,30.707,6527
353780.24700000003,165779.104,30.490000000000002,6527
353781.203,165780.866,30.455000000000002,6527
353782.254,165782.803,30.347,6527
353775.879,165767.70500000002,31.085,6527
353776.857,165769.508,30.941,6527
353777.885,165771.40600000002,30.898,6527
353778.88300000003,165773.255,30.701,6527
353779.911,165775.143,30.731,6527
353780.886,165776.946,30.613,6527
353781.864,165778.755,30.468,6527
353782.859,165780.597,30.376,6527
353783.804,165782.34100000001,30.216,6527
353784.852,165784.272,30.163,6527
353771.904,165760.362,31.471,6527
353772.931,165762.263,31.373,6527
353773.91000000003,165764.06,31.294,6527
353774.908,165765.909,31.121000000000002,6527
353771.923,165758.583,31.678,6527
353772.835,165760.272,31.435000000000002,6527
353773.886,165762.215,31.292,6527
353774.838,165763.96600000001,31.289,6527
353775.826,165765.795,31.026,6527
353776.847,165767.677,31.049,6527
353777.771,165769.381,30.908,6527
353778.832,165771.34100000001,30.892,6527
353779.797,165773.125,30.734,6527
353780.809,165774.99,30.619,6527
353781.75,165776.72400000002,30.547,6527
353782.75800000003,165778.586,30.501,6527
353783.793,165780.497,30.354,6527
353784.734,165782.234,30.258,6527
353785.819,165784.244,30.144000000000002,6527
353773.864,165758.98500000002,31.386,6527
353774.879,165760.857,31.248,6527
353775.814,165762.585,31.206,6527
353776.809,165764.427,31.081,6527
353777.783,165766.23,30.979,6527
353778.775,165768.052,30.94,6527
353779.776,165769.908,30.73,6527
353780.721,165771.645,30.618000000000002,6527
353781.756,165773.559,30.687,6527
353782.701,165775.297,30.556,6527
353783.722,165777.185,30.346,6527
353784.727,165779.043,30.313000000000002,6527
353785.685,165780.824,30.188000000000002,6527
353786.686,165782.669,30.047,6527
353787.658,165784.456,30.044,6527
353775.43200000003,165757.024,31.343,6527
353776.387,165758.784,31.288,6527
353777.438,165760.721,31.179000000000002,6527
353778.393,165762.492,31.064,6527
353779.391,165764.327,30.959,6527
353780.39900000003,165766.196,30.881,6527
353781.344,165767.933,30.749000000000002,6527
353782.38800000004,165769.87,30.645,6527
353783.31,165771.565,30.612000000000002,6527
353784.325,165773.44,30.484,6527
353785.26300000004,165775.178,30.382,6527
353786.291,165777.07200000001,30.359,6527
353787.282,165778.901,30.316,6527
353788.211,165780.616,30.156000000000002,6527
353789.26,165782.547,30.098,6527
353790.205,165784.298,29.897000000000002,6527
353777.16000000003,165755.968,31.343,6527
353778.155,165757.817,31.166,6527
353779.183,165759.70500000002,31.133,6527
353780.13,165761.462,30.918,6527
353781.158,165763.354,30.859,6527
353782.146,165765.183,30.816,6527
353783.16000000003,165767.051,30.731,6527
353784.142,165768.874,30.514,6527
353785.13,165770.683,30.57,6527
353786.12200000003,165772.525,30.465,6527
353787.12,165774.36800000002,30.324,6527
353788.114,165776.203,30.232,6527
353789.072,165777.967,30.153000000000002,6527
353790.05100000004,165779.776,30.058,6527
353791.025,165781.573,29.976,6527
353792.02400000003,165783.422,29.838,6527
353792.905,165784.995,31.466,6527
353777.692,165754.37900000002,31.498,6527
353778.675,165756.20500000002,31.206,6527
353779.71,165758.119,31.028000000000002,6527
353780.665,165759.876,31.012,6527
353781.625,165761.64800000002,30.918,6527
353782.656,165763.555,30.8,6527
353783.598,165765.286,30.708000000000002,6527
353784.662,165767.256,30.619,6527
353785.58400000003,165768.958,30.518,6527
353786.635,165770.895,30.422,6527
353787.63,165772.737,30.291,6527
353788.621,165774.559,30.294,6527
353789.636,165776.434,30.157,6527
353790.578,165778.172,30.058,6527
353791.606,165780.08000000002,29.979,6527
353778.552,165753.76200000002,31.475,6527
353779.511,165755.532,31.146,6527
353780.555,165757.469,31.045,6527
353781.53,165759.265,30.996000000000002,6527
353782.578,165761.196,30.900000000000002,6527
353783.539,165762.97,30.779,6527
353784.547,165764.828,30.743000000000002,6527
353785.526,165766.644,30.569,6527
353786.484,165768.411,30.497,6527
353787.49700000003,165770.289,30.349,6527
353788.472,165772.086,30.303,6527
353789.507,165773.99300000002,30.198,6527
353790.425,165775.688,30.172,6527
353791.456,165777.59900000002,30.001,6527
353792.474,165779.47400000002,29.913,6527
353793.482,165781.333,29.864,6527
353794.434,165783.074,30.175,6527
353792.587,165781.889,29.835,6527
353793.545,165783.643,30.304000000000002,6527
353780.407,165753.19700000001,31.202,6527
353781.342,165754.924,31.143,6527
353782.376,165756.835,30.989,6527
353783.331,165758.593,30.94,6527
353784.363,165760.5,30.848,6527
353785.354,165762.329,30.766000000000002,6527
353786.272,165764.028,30.704,6527
353787.343,165766.00400000002,30.556,6527
353788.308,165767.78100000002,30.382,6527
353789.353,165769.708,30.359,6527
353790.331,165771.518,30.251,6527
353791.341,165773.389,30.12,6527
353792.333,165775.218,30.103,6527
353793.271,165776.953,30.018,6527
353794.306,165778.857,29.919,6527
353795.24700000003,165780.598,29.798000000000002,6527
353796.235,165782.397,30.631,6527
353780.993,165750.196,31.833000000000002,6527
353781.988,165752.055,31.112000000000002,6527
353782.98600000003,165753.897,30.971,6527
353783.938,165755.661,30.895,6527
353784.936,165757.496,30.78,6527
353785.924,165759.31900000002,30.764,6527
353786.882,165761.09900000002,30.656000000000002,6527
353787.913,165762.997,30.577,6527
353788.875,165764.774,30.403000000000002,6527
353789.88300000003,165766.635,30.373,6527
353790.878,165768.478,30.259,6527
353791.83900000004,165770.25400000002,30.121000000000002,6527
353792.851,165772.116,30.062,6527
353793.829,165773.926,29.954,6527
353794.86,165775.824,29.872,6527
353795.855,165777.659,29.806,6527
353796.873,165779.541,29.642,6527
353782.863,165751.227,31.143,6527
353783.788,165752.942,30.979,6527
353784.83900000004,165754.87900000002,30.858,6527
353785.75800000003,165756.574,30.819,6527
353786.789,165758.478,30.691,6527
353787.744,165760.239,30.656000000000002,6527
353788.702,165762.009,30.554000000000002,6527
353789.75,165763.946,30.439,6527
353790.672,165765.64800000002,30.36,6527
353791.706,165767.558,30.232,6527
353792.664,165769.329,30.141000000000002,6527
353793.656,165771.158,30.104,6527
353794.654,165772.99300000002,29.996000000000002,6527
353795.645,165774.829,29.911,6527
353796.66000000003,165776.704,29.796,6527
353784.278,165750.543,31.002,6527
353785.303,165752.435,30.979,6527
353786.317,165754.316,30.822,6527
353787.275,165756.08000000002,30.724,6527
353788.3,165757.97400000002,30.71,6527
353789.245,165759.718,30.523,6527
353790.292,165761.652,30.481,6527
353791.234,165763.39,30.356,6527
353792.22500000003,165765.225,30.267,6527
353793.22000000003,165767.068,30.149,6527
353794.161,165768.799,30.071,6527
353795.17600000004,165770.68,29.943,6527
353796.154,165772.483,29.861,6527
353787.795,165751.639,30.837,6527
353788.83900000004,165753.56900000002,30.765,6527
353789.80100000004,165755.346,30.614,6527
353790.832,165757.247,30.509,6527
353791.787,165759.011,30.447,6527
353792.818,165760.915,30.326,6527
353793.837,165762.791,30.212,6527
353794.792,165764.56100000002,30.126,6527
353795.803,165766.43,30.048000000000002,6527
353796.745,165768.171,29.933,6527
353789.272,165750.584,30.830000000000002,6527
353790.24700000003,165752.38,30.79,6527
353791.205,165754.157,30.636,6527
353792.204,165755.999,30.498,6527
353793.162,165757.769,30.407,6527
353794.21,165759.7,30.334,6527
353795.17100000003,165761.486,30.157,6527
353796.179,165763.332,30.183,6527
353793.829,165757.238,30.42,6527
353794.9,165759.211,30.279,6527
353795.865,165760.998,30.095,6527
353796.85000000003,165762.814,30.121000000000002,6527
353789.869,165749.921,30.832,6527
353790.881,165751.782,30.77,6527
353791.829,165753.54,30.53,6527
353792.893,165755.503,30.471,6527
353792.512,165751.276,30.632,6527
353793.56,165753.21300000002,30.527,6527
353794.518,165754.986,30.429000000000002,6527
353795.533,165756.851,30.324,6527
353796.494,165758.638,30.166,6527
353794.93,165750.563,30.562,6527
353795.965,165752.468,30.435000000000002,6527
353796.9,165754.202,30.373,6527
353796.72500000003,165749.948,30.509,6527
353797.877,165779.719,29.632,6527
353801.391,165778.888,31.374000000000002,6527
353799.952,165778.007,29.54,6527
353798.15,165776.809,29.711000000000002,6527
353801.9,165777.117,29.531000000000002,6527
353800.23,165776.013,29.626,6527
353798.474,165774.848,29.678,6527
353797.694,165772.804,29.796,6527
353802.98600000003,165776.317,29.452,6527
353801.253,165775.172,29.544,6527
353799.55700000003,165774.049,29.626,6527
353805.884,165775.803,30.541,6527
353804.251,165774.765,29.393,6527
353802.581,165773.64800000002,29.557000000000002,6527
353800.81200000003,165772.477,29.678,6527
353799.145,165771.367,29.796,6527
353797.416,165770.227,29.842000000000002,6527
353807.234,165774.108,29.823,6527
353805.567,165773.021,29.327,6527
353803.788,165771.836,29.557000000000002,6527
353802.06200000003,165770.69700000001,29.603,6527
353800.27,165769.506,29.688000000000002,6527
353798.604,165768.396,29.809,6527
353797.64,165765.501,29.941,6527
353809.487,165773.31100000002,30.646,6527
353807.976,165772.36800000002,29.235,6527
353806.204,165771.19,29.426000000000002,6527
353804.533,165770.08000000002,29.521,6527
353802.771,165768.915,29.622,6527
353801.068,165767.779,29.783,6527
353799.28,165766.594,29.839000000000002,6527
353810.814,165772.348,30.531000000000002,6527
353809.259,165771.369,29.225,6527
353807.526,165770.223,29.337,6527
353805.794,165769.068,29.442,6527
353804.18,165767.997,29.616,6527
353802.358,165766.786,29.704,6527
353800.78,165765.741,29.806,6527
353798.955,165764.53,29.934,6527
353797.28500000003,165763.42,30.078,6527
353806.376,165766.882,29.468,6527
353804.636,165765.726,29.629,6527
353802.927,165764.587,29.829,6527
353801.204,165763.445,29.868000000000002,6527
353799.445,165762.28,29.941,6527
353797.778,165761.176,30.029,6527
353811.637,165770.375,29.12,6527
353809.875,165769.2,29.216,6527
353808.109,165768.029,29.337,6527
353799.076,165759.233,30.013,6527
353797.222,165758.002,30.115000000000002,6527
353814.543,165769.46,29.934,6527
353812.781,165768.328,29.091,6527
353811.17,165767.257,29.248,6527
353809.408,165766.08800000002,29.330000000000002,6527
353807.771,165765.001,29.432000000000002,6527
353805.976,165763.807,29.557000000000002,6527
353804.217,165762.641,29.645,6527
353802.54,165761.532,29.793,6527
353800.751,165760.347,29.859,6527
353816.666,165768.08000000002,29.757,6527
353814.98600000003,165766.99300000002,29.035,6527
353813.368,165765.922,29.222,6527
353811.544,165764.711,29.327,6527
353809.821,165763.56900000002,29.34,6527
353808.045,165762.391,29.55,6527
353806.313,165761.238,29.685000000000002,6527
353804.587,165760.096,29.747,6527
353802.814,165758.918,29.941,6527
353801.18700000003,165757.84,29.95,6527
353799.455,165756.695,30.078,6527
353797.722,165755.539,30.242,6527
353817.525,165766.798,28.986,6527
353815.858,165765.688,29.045,6527
353814.093,165764.52300000002,29.18,6527
353812.452,165763.433,29.314,6527
353810.66000000003,165762.242,29.396,6527
353808.954,165761.112,29.55,6527
353807.19800000003,165759.94700000001,29.586000000000002,6527
353805.466,165758.801,29.724,6527
353803.848,165757.72400000002,29.931,6527
353801.99700000003,165756.5,29.964000000000002,6527
353800.32,165755.384,30.19,6527
353798.499,165754.173,30.262,6527
353819.18700000003,165765.827,29.13,6527
353817.507,165764.718,29.032,6527
353815.745,165763.549,29.111,6527
353814.075,165762.443,29.216,6527
353812.349,165761.30000000002,29.291,6527
353810.675,165760.19,29.406000000000002,6527
353808.936,165759.03100000002,29.59,6527
353807.17,165757.86000000002,29.747,6527
353805.533,165756.776,29.836000000000002,6527
353803.751,165755.601,29.823,6527
353802.107,165754.507,29.987000000000002,6527
353800.266,165753.283,30.233,6527
353798.543,165752.141,30.298000000000002,6527
353821.03500000003,165764.075,28.838,6527
353819.309,165762.935,28.897000000000002,6527
353817.635,165761.826,29.006,6527
353815.804,165760.608,29.147000000000002,6527
353814.134,165759.505,29.258,6527
353812.342,165758.314,29.353,6527
353810.662,165757.2,29.557000000000002,6527
353808.936,165756.051,29.622,6527
353807.167,165754.88,29.763,6527
353805.494,165753.77,29.911,6527
353803.738,165752.611,29.967000000000002,6527
353802.127,165751.54,30.115000000000002,6527
353800.375,165750.385,30.115000000000002,6527
353824.604,165763.172,30.296,6527
353822.977,165762.154,28.810000000000002,6527
353821.238,165761.002,28.934,6527
353819.538,165759.872,29.046,6527
353817.805,165758.723,29.148,6527
353816.168,165757.643,29.249000000000002,6527
353814.34,165756.432,29.381,6527
353812.67,165755.328,29.459,6527
353810.931,165754.17,29.643,6527
353809.168,165753.001,29.755,6527
353807.43200000003,165751.84900000002,29.906000000000002,6527
353805.647,165750.668,29.932000000000002,6527
353825.88800000004,165762.151,30.549,6527
353824.416,165761.247,28.754,6527
353822.654,165760.078,28.839000000000002,6527
353820.987,165758.975,28.938,6527
353819.244,165757.809,29.154,6527
353817.456,165756.631,29.19,6527
353815.749,165755.502,29.318,6527
353813.92100000003,165754.284,29.469,6527
353812.251,165753.184,29.571,6527
353810.48600000003,165752.009,29.712,6527
353808.81200000003,165750.896,29.86,6527
353827.51300000004,165761.07200000001,29.896,6527
353825.985,165760.106,28.688,6527
353824.186,165758.914,28.813,6527
353822.543,165757.824,28.944,6527
353820.78,165756.659,29.053,6527
353819.077,165755.529,29.148,6527
353817.341,165754.377,29.282,6527
353815.553,165753.189,29.338,6527
353813.876,165752.083,29.512,6527
353812.17600000004,165750.953,29.62,6527
353826.11100000003,165756.856,28.804000000000002,6527
353824.356,165755.69700000001,28.821,6527
353822.738,165754.62,29.001,6527
353820.973,165753.45500000002,29.113,6527
353819.243,165752.306,29.195,6527
353817.534,165751.173,29.391000000000002,6527
353815.795,165750.014,29.578,6527
353829.504,165759.08800000002,28.985,6527
353827.814,165757.992,28.66,6527
353832.22500000003,165757.892,29.536,6527
353830.542,165756.808,28.588,6527
353828.832,165755.682,28.716,6527
353827.136,165754.553,28.811,6527
353825.337,165753.36800000002,28.919,6527
353823.64400000003,165752.245,28.939,6527
353821.865,165751.067,29.175,6527
353820.166,165749.941,29.286,6527
353825.445,165751.516,28.838,6527
353823.732,165750.374,29.041,6527
353832.316,165756.067,28.421,6527
353830.643,165754.95,28.556,6527
353828.818,165753.746,28.654,6527
353827.19800000003,165752.669,28.848,6527
353835.568,165755.103,28.927,6527
353833.898,165754.02300000002,28.389,6527
353832.155,165752.864,28.602,6527
353830.43200000003,165751.722,28.621000000000002,6527
353828.752,165750.612,28.779,6527
353837.51900000003,165753.101,28.242,6527
353835.711,165751.896,28.449,6527
353834.015,165750.78,28.495,6527
353838.96400000004,165750.897,28.334,6527
353797.778,165781.177,30.866,6527
353797.585,165778.419,29.671,6527
353798.616,165780.294,30.17,6527
353797.165,165774.351,29.782,6527
353798.124,165776.115,29.713,6527
353799.12200000003,165777.964,29.562,6527
353800.043,165779.626,30.829,6527
353797.793,165770.101,29.871000000000002,6527
353798.738,165771.839,29.775000000000002,6527
353799.733,165773.681,29.661,6527
353800.727,165775.517,29.605,6527
353801.662,165777.251,29.556,6527
353797.161,165765.14800000002,30.016000000000002,6527
353798.185,165767.049,29.967000000000002,6527
353799.2,165768.914,29.872,6527
353800.141,165770.655,29.767,6527
353801.196,165772.59900000002,29.639,6527
353802.134,165774.333,29.573,6527
353803.165,165776.237,29.492,6527
353797.831,165764.623,29.973,6527
353798.806,165766.426,29.895,6527
353799.857,165768.363,29.816,6527
353800.782,165770.07200000001,29.685000000000002,6527
353801.81,165771.969,29.652,6527
353802.782,165773.766,29.583000000000002,6527
353803.813,165775.673,29.501,6527
353797.506,165760.497,30.114,6527
353798.5,165762.339,30.015,6527
353799.512,165764.214,29.900000000000002,6527
353800.54,165766.105,29.871000000000002,6527
353801.521,165767.921,29.703,6527
353802.493,165769.711,29.674,6527
353803.477,165771.527,29.526,6527
353804.439,165773.314,29.372,6527
353805.47000000003,165775.195,29.618000000000002,6527
353797.911,165756.07,30.287,6527
353798.909,165757.912,30.163,6527
353799.874,165759.696,29.976,6527
353800.935,165761.659,29.93,6527
353801.86,165763.364,29.805,6527
353802.87200000003,165765.226,29.756,6527
353803.853,165767.035,29.635,6527
353804.864,165768.91,29.539,6527
353805.892,165770.808,29.490000000000002,6527
353806.877,165772.617,29.352,6527
353807.84500000003,165774.381,30.406000000000002,6527
353797.7,165751.751,30.400000000000002,6527
353798.662,165753.529,30.253,6527
353799.65,165755.358,30.226,6527
353800.63800000004,165757.181,29.984,6527
353801.629,165759.01,29.964000000000002,6527
353802.588,165760.78,29.883,6527
353803.609,165762.668,29.686,6527
353804.597,165764.497,29.650000000000002,6527
353805.572,165766.294,29.581,6527
353806.603,165768.192,29.525000000000002,6527
353807.558,165769.965,29.447,6527
353808.559,165771.81100000002,29.286,6527
353809.451,165773.404,30.785,6527
353799.64900000003,165751.55000000002,30.261,6527
353800.574,165753.265,30.124000000000002,6527
353801.631,165755.215,30.14,6527
353802.56,165756.93600000002,29.933,6527
353803.575,165758.808,29.845,6527
353804.536,165760.581,29.727,6527
353805.494,165762.352,29.641000000000002,6527
353806.545,165764.295,29.507,6527
353807.467,165765.997,29.431,6527
353808.498,165767.901,29.366,6527
353809.444,165769.655,29.189,6527
353810.471,165771.546,29.163,6527
353801.444,165751.563,30.212,6527
353802.498,165753.513,30.042,6527
353803.476,165755.316,29.937,6527
353804.47500000003,165757.159,29.812,6527
353805.443,165758.958,29.802,6527
353806.451,165760.81,29.602,6527
353807.45900000003,165762.672,29.573,6527
353808.417,165764.449,29.445,6527
353809.415,165766.285,29.356,6527
353810.357,165768.019,29.291,6527
353811.375,165769.904,29.131,6527
353812.243,165771.448,30.925,6527
353803.32,165751.438,30.12,6527
353804.355,165753.356,29.973,6527
353805.313,165755.119,29.881,6527
353806.362,165757.058,29.82,6527
353807.31,165758.806,29.652,6527
353808.322,165760.677,29.560000000000002,6527
353809.35000000003,165762.57200000001,29.521,6527
353810.311,165764.34900000002,29.39,6527
353811.342,165766.26,29.272000000000002,6527
353812.30700000003,165768.04,29.16,6527
353813.305,165769.882,29.259,6527
353805.389,165751.06900000002,30.015,6527
353806.391,165752.924,29.819,6527
353807.415,165754.81900000002,29.799,6527
353808.38,165756.596,29.664,6527
353809.378,165758.44400000002,29.5,6527
353810.357,165760.249,29.426000000000002,6527
353811.329,165762.046,29.383,6527
353812.367,165763.957,29.226,6527
353813.322,165765.72400000002,29.183,6527
353814.36,165767.641,29.009,6527
353815.245,165769.238,30.266000000000002,6527
353806.969,165750.699,29.942,6527
353807.911,165752.45,29.759,6527
353808.969,165754.397,29.811,6527
353809.93700000003,165756.187,29.611,6527
353810.985,165758.124,29.522000000000002,6527
353811.963,165759.927,29.434,6527
353812.924,165761.703,29.302,6527
353813.963,165763.62,29.169,6527
353814.882,165765.321,29.116,6527
353815.946,165767.284,29.064,6527
353808.216,165750.131,29.837,6527
353809.178,165751.914,29.68,6527
353810.199,165753.796,29.709,6527
353811.197,165755.638,29.617,6527
353812.199,165757.484,29.444,6527
353813.13800000004,165759.22,29.405,6527
353814.169,165761.124,29.297,6527
353815.167,165762.973,29.149,6527
353816.215,165764.904,29.087,6527
353817.19,165766.71,29.025000000000002,6527
353811.23,165749.988,29.684,6527
353812.184,165751.752,29.655,6527
353813.199,165753.627,29.553,6527
353814.131,165755.351,29.326,6527
353815.192,165757.305,29.356,6527
353816.13,165759.04200000002,29.261,6527
353817.152,165760.93,29.071,6527
353818.179,165762.828,29.041,6527
353819.124,165764.576,28.88,6527
353820.029,165766.192,30.448,6527
353819.168,165760.0,29.031000000000002,6527
353820.113,165761.751,28.893,6527
353821.141,165763.646,28.864,6527
353814.251,165750.919,29.641000000000002,6527
353815.206,165752.683,29.376,6527
353816.194,165754.51200000002,29.349,6527
353817.175,165756.32200000001,29.215,6527
353818.169,165758.164,29.13,6527
353814.996,165750.423,29.576,6527
353815.958,165752.206,29.405,6527
353816.956,165754.04200000002,29.346,6527
353817.971,165755.91700000002,29.215,6527
353818.92600000004,165757.687,29.143,6527
353819.963,165759.604,28.979,6527
353820.869,165761.27300000002,28.887,6527
353821.88300000003,165763.14800000002,28.818,6527
353816.378,165749.916,29.435000000000002,6527
353817.317,165751.657,29.323,6527
353818.351,165753.568,29.208000000000002,6527
353819.346,165755.397,29.166,6527
353820.377,165757.305,29.061,6527
353821.322,165759.049,28.926000000000002,6527
353822.354,165760.96600000001,28.779,6527
353823.30100000004,165762.707,28.893,6527
353819.833,165751.0,29.221,6527
353820.851,165752.888,29.084,6527
353821.826,165754.678,29.067,6527
353822.84,165756.559,28.933,6527
353823.828,165758.382,28.943,6527
353824.813,165760.198,28.782,6527
353825.791,165761.971,29.73,6527
353821.653,165750.225,29.109,6527
353822.665,165752.1,29.01,6527
353823.659,165753.929,28.981,6527
353824.704,165755.86000000002,28.925,6527
353825.645,165757.601,28.846,6527
353826.63,165759.41700000002,28.692,6527
353827.53500000003,165761.053,29.923000000000002,6527
353823.797,165750.909,29.079,6527
353824.739,165752.65,28.988,6527
353825.757,165754.535,28.817,6527
353826.784,165756.429,28.804000000000002,6527
353827.76300000004,165758.232,28.709,6527
353828.751,165760.038,29.496000000000002,6527
353825.554,165750.502,29.02,6527
353826.53500000003,165752.318,28.892,6527
353827.531,165754.152,28.797,6527
353828.512,165755.968,28.656000000000002,6527
353829.564,165757.908,28.577,6527
353828.45900000003,165751.035,28.781000000000002,6527
353829.457,165752.878,28.696,6527
353830.468,165754.746,28.627,6527
353831.417,165756.497,28.472,6527
353831.05,165751.598,28.669,6527
353832.049,165753.437,28.551000000000002,6527
353833.027,165755.239,28.479,6527
353833.889,165756.79,30.07,6527
353833.185,165751.799,28.650000000000002,6527
353834.117,165753.527,28.449,6527
353835.154,165755.434,28.794,6527
353834.719,165750.718,28.509,6527
353835.71400000004,165752.554,28.413,6527
353836.689,165754.347,28.656000000000002,6527
353837.23600000003,165750.051,28.384,6527
353838.194,165751.828,28.279,6527
353839.076,165753.395,29.916,6527
353841.918,165750.317,28.131,6527
353840.62200000003,165751.982,28.679000000000002,6527
353839.961,165750.266,28.245,6527
353840.952,165752.066,29.039,6527
353841.895,165750.469,28.238,6527
353789.065,165749.798,30.857,6527
353787.3,165748.627,31.001,6527
353791.637,165749.623,30.721,6527
353789.911,165748.483,30.801000000000002,6527
353788.238,165747.367,30.988,6527
353793.447,165748.766,30.603,6527
353791.626,165747.555,30.728,6527
353789.92,165746.419,30.903000000000002,6527
353796.936,165748.1,30.439,6527
353795.206,165746.951,30.564,6527
353793.54,165745.848,30.656000000000002,6527
353791.741,165744.65600000002,30.808,6527
353797.05,165744.965,30.545,6527
353795.406,165743.875,30.719,6527
353796.659,165742.846,30.654,6527
353785.852,165748.033,31.471,6527
353786.84,165749.865,30.923000000000002,6527
353788.221,165748.643,30.958000000000002,6527
353788.878,165748.085,30.917,6527
353789.544,165745.785,31.262,6527
353790.56200000003,165747.676,30.786,6527
353791.571,165749.545,30.727,6527
353792.01900000003,165745.187,30.861,6527
353792.947,165746.89800000002,30.697,6527
353793.992,165748.829,30.624000000000002,6527
353793.778,165744.507,30.787,6527
353794.762,165746.323,30.604,6527
353795.731,165748.113,30.581,6527
353795.613,165744.103,30.708000000000002,6527
353796.664,165746.047,30.557000000000002,6527
353796.493,165742.427,30.639,6527
353798.668,165749.252,30.305,6527
353803.967,165749.554,30.125,6527
353802.19800000003,165748.383,30.296,6527
353800.505,165747.253,30.391000000000002,6527
353798.743,165746.08800000002,30.493000000000002,6527
353807.112,165749.77300000002,29.945,6527
353805.324,165748.589,30.02,6527
353803.65,165747.479,30.171,6527
353801.859,165746.294,30.263,6527
353800.185,165745.178,30.447,6527
353798.39,165743.99300000002,30.555,6527
353810.443,165749.806,29.751,6527
353808.64400000003,165748.615,29.886,6527
353806.879,165747.44,30.024,6527
353805.179,165746.321,30.116,6527
353803.417,165745.146,30.23,6527
353801.717,165744.026,30.352,6527
353799.988,165742.87,30.473,6527
353798.314,165741.764,30.624000000000002,6527
353814.2,165748.96600000001,29.565,6527
353812.31,165747.71,29.677,6527
353810.695,165746.642,29.864,6527
353808.933,165745.47400000002,29.969,6527
353807.17100000003,165744.302,30.1,6527
353805.501,165743.199,30.212,6527
353803.742,165742.033,30.277,6527
353802.039,165740.897,30.464000000000002,6527
353800.24700000003,165739.71300000002,30.53,6527
353818.436,165748.79200000002,29.369,6527
353816.697,165747.64,29.519000000000002,6527
353814.991,165746.51,29.68,6527
353813.255,165745.358,29.844,6527
353811.628,165744.28100000002,29.854,6527
353809.862,165743.109,29.985,6527
353808.156,165741.98,30.143,6527
353806.42600000004,165740.834,30.258,6527
353804.694,165739.685,30.349,6527
353802.994,165738.559,30.477,6527
353822.029,165749.248,29.146,6527
353820.208,165748.044,29.245,6527
353818.60000000003,165746.979,29.356,6527
353816.732,165745.736,29.543,6527
353815.06200000003,165744.626,29.668,6527
353813.3,165743.461,29.776,6527
353811.567,165742.312,29.881,6527
353809.891,165741.199,30.075,6527
353808.099,165740.014,30.16,6527
353806.468,165738.937,30.213,6527
353804.667,165737.745,30.383,6527
353802.996,165736.616,30.859,6527
353826.953,165749.421,28.904,6527
353825.25,165748.288,29.038,6527
353823.452,165747.097,29.176000000000002,6527
353821.719,165745.948,29.304000000000002,6527
353820.01900000003,165744.828,29.356,6527
353818.24700000003,165743.647,29.557000000000002,6527
353816.58,165742.547,29.678,6527
353814.848,165741.39800000002,29.766000000000002,6527
353813.115,165740.253,29.901,6527
353811.379,165739.098,30.045,6527
353809.656,165737.965,30.055,6527
353807.953,165736.836,30.213,6527
353806.148,165735.631,30.436,6527
353832.308,165749.647,28.613,6527
353830.571,165748.492,28.764,6527
353828.862,165747.359,28.951,6527
353827.103,165746.19400000002,29.026,6527
353825.42600000004,165745.084,29.177,6527
353823.568,165743.86000000002,29.246000000000002,6527
353821.928,165742.77,29.387,6527
353820.228,165741.644,29.482,6527
353818.43,165740.449,29.63,6527
353816.727,165739.323,29.764,6527
353814.931,165738.138,29.863,6527
353813.255,165737.022,30.053,6527
353811.433,165735.81900000002,30.148,6527
353809.799,165734.73500000002,30.217000000000002,6527
353808.06,165733.583,30.394000000000002,6527
353833.696,165747.418,28.636,6527
353832.049,165746.324,28.816,6527
353830.317,165745.17500000002,28.921,6527
353828.617,165744.049,29.019000000000002,6527
353826.98,165742.965,29.124000000000002,6527
353825.148,165741.75400000002,29.229,6527
353823.50800000003,165740.671,29.367,6527
353821.739,165739.499,29.531000000000002,6527
353820.069,165738.389,29.626,6527
353818.343,165737.246,29.708000000000002,6527
353816.567,165736.068,29.909,6527
