391574.313,277268.16000000003,92.98100000000001,6527
391579.512,277269.337,93.522,6527
391563.222,277263.114,93.255,6527
391565.549,277263.639,93.185,6527
391567.98,277264.19,93.149,6527
391570.353,277264.725,93.09,6527
391572.679,277265.25,93.021,6527
391575.239,277265.829,93.071,6527
391580.38800000004,277266.998,93.60900000000001,6527
391570.614,277262.93200000003,93.197,6527
391575.507,277264.036,93.013,6527
391578.04000000004,277264.61,93.006,6527
391580.669,277265.20900000003,93.56700000000001,6527
391583.17600000004,277265.776,93.60300000000001,6527
391585.598,277266.324,93.656,6527
391576.911,277262.992,93.10600000000001,6527
391579.349,277263.542,93.089,6527
391584.38,277264.68200000003,93.568,6527
391586.324,277263.29,93.58,6527
391588.874,277263.867,93.613,6527
391490.239,277272.153,93.524,6527
391490.101,277269.299,93.55,6527
391489.735,277273.554,93.566,6527
391584.597,277265.42,93.674,6527
391582.833,277263.891,93.467,6527
391582.61100000003,277264.78,93.63,6527
391580.66500000004,277263.087,93.07900000000001,6527
391582.07300000003,277265.814,93.665,6527
391580.157,277264.148,93.298,6527
391581.686,277268.86100000003,93.667,6527
391579.939,277267.344,93.703,6527
391576.08,277263.998,93.11200000000001,6527
391579.349,277269.19800000003,93.581,6527
391575.511,277265.869,93.135,6527
391573.7,277264.301,93.11200000000001,6527
391571.543,277267.627,93.114,6527
391569.838,277266.147,93.186,6527
391566.223,277263.013,93.308,6527
391578.765,277270.792,93.709,6527
391574.904,277267.44,93.01,6527
391573.097,277265.875,93.07000000000001,6527
391568.67100000003,277268.466,93.17,6527
391563.292,277263.80700000003,93.401,6527
391567.538,277269.165,93.069,6527
391562.195,277264.537,93.215,6527
391571.739,277276.775,93.58800000000001,6527
391569.886,277275.167,93.614,6527
391567.934,277273.465,93.04,6527
391566.117,277271.893,93.182,6527
391564.286,277270.305,93.175,6527
391562.466,277268.727,93.205,6527
391560.679,277267.178,93.33,6527
391558.944,277265.675,93.32300000000001,6527
391557.05100000004,277264.034,93.438,6527
391573.05700000003,277275.657,93.611,6527
391571.164,277274.014,93.519,6527
391567.398,277270.746,93.09700000000001,6527
391565.528,277269.12200000003,93.074,6527
391563.734,277267.564,93.172,6527
391561.858,277265.94,93.238,6527
391560.113,277264.427,93.297,6527
391568.06,277276.586,93.644,6527
391566.009,277274.806,93.092,6527
391564.284,277273.306,93.102,6527
391562.471,277271.734,93.142,6527
391558.925,277268.662,93.29,6527
391557.079,277267.061,93.346,6527
391555.351,277265.561,93.44800000000001,6527
391553.474,277263.934,93.517,6527
391567.766,277279.862,93.674,6527
391560.326,277273.409,93.205,6527
391558.575,277271.889,93.244,6527
391553.22500000003,277267.252,93.385,6527
391551.391,277265.661,93.47200000000001,6527
391565.35000000003,277280.331,93.655,6527
391559.737,277275.456,93.081,6527
391557.874,277273.842,93.18,6527
391556.027,277272.237,93.135,6527
391554.26900000003,277270.718,93.259,6527
391552.442,277269.129,93.361,6527
391550.717,277267.636,93.387,6527
391548.792,277265.963,93.502,6527
391547.093,277264.492,93.506,6527
391545.24,277262.885,93.545,6527
391563.162,277279.715,93.516,6527
391561.114,277277.931,92.964,6527
391559.38300000003,277276.431,92.961,6527
391557.55,277274.84,93.05,6527
391553.971,277271.742,93.20400000000001,6527
391552.13800000004,277270.151,93.286,6527
391550.367,277268.615,93.371,6527
391548.487,277266.987,93.437,6527
391546.69,277265.425,93.438,6527
391544.85000000003,277263.831,93.52,6527
391552.771,277276.50800000003,93.188,6527
391551.0,277274.972,93.264,6527
391549.17,277273.384,93.365,6527
391547.336,277271.792,93.35900000000001,6527
391545.532,277270.227,93.44800000000001,6527
391543.63,277268.58,93.54,6527
391541.941,277267.109,93.563,6527
391540.098,277265.515,93.639,6527
391538.33900000004,277263.989,93.57000000000001,6527
391560.05700000003,277279.575,93.083,6527
391558.124,277277.89900000003,93.07300000000001,6527
391556.33,277276.34,93.07900000000001,6527
391554.494,277274.749,93.253,6527
391552.663,277273.164,93.263,6527
391550.882,277271.618,93.312,6527
391549.072,277270.04600000003,93.375,6527
391547.367,277268.569,93.365,6527
391545.461,277266.919,93.54,6527
391543.697,277265.386,93.546,6527
391541.843,277263.783,93.595,6527
391537.386,277266.463,93.621,6527
391535.639,277264.95,93.687,6527
391533.841,277263.388,93.694,6527
391553.978,277278.982,93.119,6527
391552.27,277277.502,93.083,6527
391550.364,277275.848,93.254,6527
391548.68200000003,277274.387,93.3,6527
391546.76300000004,277272.721,93.34,6527
391544.972,277271.172,93.37,6527
391543.224,277269.652,93.517,6527
391541.39400000003,277268.068,93.534,6527
391537.73,277264.888,93.635,6527
391535.936,277263.333,93.662,6527
391547.733,277279.725,93.09400000000001,6527
391545.913,277278.147,93.22200000000001,6527
391544.106,277276.579,93.291,6527
391542.355,277275.059,93.331,6527
391538.82300000003,277271.994,93.429,6527
391536.953,277270.373,93.528,6527
391535.192,277268.847,93.55,6527
391533.378,277267.272,93.60600000000001,6527
391531.58400000003,277265.716,93.64,6527
391529.744,277264.118,93.633,6527
391553.554,277280.487,93.048,6527
391551.892,277279.04600000003,93.146,6527
391550.045,277277.445,93.202,6527
391548.271,277275.906,93.267,6527
391544.67600000004,277272.791,93.47800000000001,6527
391542.912,277271.255,93.47800000000001,6527
391541.012,277269.609,93.47800000000001,6527
391539.25800000003,277268.086,93.521,6527
391542.189,277279.201,93.355,6527
391540.424,277277.67100000003,93.358,6527
391538.58400000003,277276.07300000003,93.43,6527
391531.352,277269.799,93.654,6527
391529.433,277268.136,93.697,6527
391527.734,277266.662,93.71300000000001,6527
391525.821,277265.002,93.789,6527
391524.092,277263.502,93.72,6527
391540.46400000004,277279.093,93.232,6527
391538.64,277277.515,93.363,6527
391536.869,277275.976,93.34400000000001,6527
391535.115,277274.456,93.386,6527
391533.218,277272.809,93.498,6527
391531.451,277271.276,93.501,6527
391529.61100000003,277269.675,93.58,6527
391527.85000000003,277268.152,93.617,6527
391525.93,277266.483,93.656,6527
391524.13300000003,277264.924,93.683,6527
391522.329,277263.362,93.693,6527
391534.619,277280.366,93.465,6527
391532.739,277278.732,93.432,6527
391530.945,277277.174,93.449,6527
391529.052,277275.533,93.57300000000001,6527
391527.308,277274.02,93.555,6527
391525.52,277272.468,93.58800000000001,6527
391523.667,277270.86,93.64,6527
391521.853,277269.28500000003,93.709,6527
391519.92100000003,277267.609,93.72500000000001,6527
391518.143,277266.07,93.71600000000001,6527
391516.267,277264.439,93.794,6527
391537.106,277279.857,93.291,6527
391535.276,277278.272,93.406,6527
391533.429,277276.667,93.46600000000001,6527
391531.609,277275.086,93.41,6527
391529.726,277273.455,93.565,6527
391527.97500000003,277271.93200000003,93.611,6527
391526.121,277270.328,93.663,6527
391524.33400000003,277268.776,93.611,6527
391522.569,277267.243,93.633,6527
391520.647,277265.577,93.679,6527
391518.886,277264.047,93.611,6527
391511.276,277268.45900000003,93.71000000000001,6527
391528.31200000003,277279.88300000003,93.482,6527
391526.538,277278.34,93.46900000000001,6527
391524.73,277276.772,93.548,6527
391523.022,277275.291,93.637,6527
391517.543,277270.533,93.633,6527
391515.677,277268.913,93.742,6527
391513.903,277267.37,93.637,6527
391512.02,277265.74,93.804,6527
391530.759,277279.039,93.436,6527
391529.00800000003,277277.51900000003,93.482,6527
391527.227,277275.973,93.544,6527
391523.619,277272.843,93.64,6527
391521.723,277271.193,93.653,6527
391519.942,277269.65,93.627,6527
391518.082,277268.033,93.656,6527
391516.295,277266.484,93.712,6527
391514.46400000004,277264.892,93.735,6527
391504.931,277264.58400000003,93.613,6527
391523.244,277280.479,93.395,6527
391521.341,277278.829,93.49,6527
391519.563,277277.286,93.569,6527
391517.667,277275.639,93.58200000000001,6527
391515.909,277274.11,93.526,6527
391514.069,277272.51900000003,93.625,6527
391512.189,277270.885,93.602,6527
391510.44800000003,277269.375,93.70100000000001,6527
391523.92,277279.431,93.447,6527
391521.981,277277.749,93.53,6527
391520.253,277276.252,93.566,6527
391518.403,277274.64400000003,93.615,6527
391516.566,277273.049,93.618,6527
391514.815,277271.53,93.58500000000001,6527
391512.968,277269.929,93.657,6527
391513.697,277279.381,93.532,6527
391511.973,277277.881,93.47200000000001,6527
391509.984,277276.153,93.518,6527
391506.366,277273.013,93.59700000000001,6527
391504.58900000004,277271.474,93.682,6527
391499.108,277266.71,93.607,6527
391497.18200000003,277265.04,93.572,6527
391495.371,277263.465,93.467,6527
391517.962,277279.783,93.61200000000001,6527
391516.241,277278.286,93.559,6527
391512.488,277275.025,93.618,6527
391510.704,277273.479,93.691,6527
391508.847,277271.865,93.632,6527
391507.109,277270.358,93.73700000000001,6527
391503.386,277267.123,93.616,6527
391501.556,277265.53500000003,93.747,6527
391499.735,277263.954,93.714,6527
391517.93,277277.759,93.652,6527
391516.132,277276.197,93.668,6527
391512.471,277273.022,93.71900000000001,6527
391510.594,277271.391,93.797,6527
391503.28,277265.039,93.745,6527
391507.80100000004,277280.302,93.59,6527
391504.2,277277.17100000003,93.718,6527
391496.806,277270.754,93.639,6527
391509.575,277279.152,93.525,6527
391505.98600000003,277276.03500000003,93.584,6527
391502.395,277272.917,93.745,6527
391498.661,277269.672,93.607,6527
391499.542,277280.229,93.584,6527
391497.612,277278.556,93.62,6527
391492.102,277273.772,93.574,6527
391502.993,277280.48600000003,93.531,6527
391501.147,277278.885,93.508,6527
391493.76300000004,277272.474,93.557,6527
391491.949,277270.89900000003,93.449,6527
391502.822,277277.74,93.60600000000001,6527
391500.965,277276.129,93.75,6527
391504.596,277279.276,93.69800000000001,6527
391488.983,277263.322,93.325,6527
391490.445,277267.125,93.411,6527
391488.741,277265.828,93.36200000000001,6527
391489.637,277268.724,93.45700000000001,6527
391489.717,277272.45900000003,93.45400000000001,6527
391589.28500000003,277264.19,93.621,6527
391587.608,277262.913,93.549,6527
391587.462,277265.764,93.637,6527
391585.659,277264.392,93.555,6527
391583.998,277263.128,93.532,6527
391586.412,277266.802,93.608,6527
391584.694,277265.495,93.559,6527
391582.94800000003,277264.166,93.5,6527
391581.29000000004,277262.909,92.977,6527
391580.453,277270.583,93.633,6527
391578.719,277269.267,93.636,6527
391577.029,277267.977,93.495,6527
391575.374,277266.725,92.961,6527
391573.581,277265.36,93.08500000000001,6527
391571.775,277263.985,93.127,6527
391584.077,277268.869,93.657,6527
391582.32,277267.534,93.516,6527
391580.708,277266.309,93.555,6527
391579.044,277265.049,92.935,6527
391577.327,277263.742,93.008,6527
391579.291,277272.829,93.81700000000001,6527
391577.531,277271.493,93.561,6527
391575.8,277270.177,93.571,6527
391574.208,277268.965,93.049,6527
391572.303,277267.518,92.99,6527
391570.636,277266.24700000003,93.118,6527
391568.75,277264.814,93.102,6527
391567.083,277263.543,93.236,6527
391577.516,277272.957,93.571,6527
391575.746,277271.61100000003,93.46900000000001,6527
391574.072,277270.33400000003,93.505,6527
391572.434,277269.096,92.915,6527
391570.766,277267.825,92.918,6527
391568.87700000004,277266.388,93.036,6527
391567.137,277265.06200000003,93.092,6527
391565.407,277263.746,93.102,6527
391572.446,277276.579,93.616,6527
391570.732,277275.272,93.557,6527
391575.07,277274.56200000003,93.534,6527
391573.267,277273.194,93.432,6527
391571.58,277271.907,93.406,6527
391569.879,277270.62,92.812,6527
391568.112,277269.27400000003,92.953,6527
391566.389,277267.965,92.93,6527
391564.582,277266.59,92.979,6527
391562.855,277265.273,93.101,6527
391560.98,277263.846,93.173,6527
391568.992,277273.952,93.474,6527
391567.433,277272.766,92.955,6527
391565.699,277271.446,93.09,6527
391563.909,277270.08400000003,93.083,6527
391562.199,277268.781,93.142,6527
391560.356,277267.377,93.211,6527
391558.67600000004,277266.1,93.28,6527
391556.866,277264.721,93.346,6527
391555.096,277263.373,93.392,6527
391571.958,277278.638,93.849,6527
391570.238,277277.332,93.57300000000001,6527
391568.511,277276.015,93.56,6527
391566.935,277274.82300000003,93.09100000000001,6527
391565.113,277273.435,92.962,6527
391563.478,277272.19,93.096,6527
391561.547,277270.721,93.027,6527
391559.876,277269.447,93.172,6527
391558.037,277268.04600000003,93.241,6527
391556.33900000004,277266.756,93.247,6527
391554.553,277265.397,93.352,6527
391552.711,277263.996,93.31,6527
391563.83400000003,277279.282,93.379,6527
391562.215,277278.053,92.959,6527
391560.482,277276.737,92.84700000000001,6527
391558.80100000004,277275.457,92.919,6527
391556.978,277274.069,92.913,6527
391555.218,277272.73,93.034,6527
391553.419,277271.358,93.07000000000001,6527
391551.642,277270.006,93.136,6527
391549.925,277268.699,93.224,6527
391548.033,277267.259,93.241,6527
391546.37200000003,277265.995,93.365,6527
391544.51300000004,277264.578,93.394,6527
391542.813,277263.284,93.43,6527
391569.386,277279.26900000003,93.558,6527
391567.616,277277.927,93.46600000000001,6527
391565.938,277276.65,93.391,6527
391564.27400000003,277275.389,92.895,6527
391562.55,277274.079,93.0,6527
391560.688,277272.659,93.02,6527
391558.961,277271.346,93.017,6527
391557.125,277269.94800000003,93.072,6527
391555.34500000003,277268.596,93.138,6527
391553.598,277267.263,93.223,6527
391551.822,277265.915,93.286,6527
391550.174,277264.657,93.355,6527
391548.322,277263.249,93.351,6527
391560.363,277280.213,93.126,6527
391558.616,277278.887,92.952,6527
391556.89900000003,277277.577,93.037,6527
391555.047,277276.167,93.024,6527
391553.284,277274.824,93.165,6527
391551.52400000003,277273.485,93.159,6527
391549.704,277272.101,93.27,6527
391548.007,277270.81,93.277,6527
391546.19800000003,277269.43200000003,93.349,6527
391544.527,277268.158,93.398,6527
391542.694,277266.764,93.45100000000001,6527
391541.02,277265.49,93.497,6527
391539.25,277264.14400000003,93.545,6527
391557.693,277280.474,92.882,6527
391555.854,277279.07300000003,92.941,6527
391554.12700000004,277277.76,93.059,6527
391552.318,277276.382,93.122,6527
391550.624,277275.092,93.236,6527
391548.867,277273.756,93.23,6527
391547.13300000003,277272.43700000003,93.259,6527
391545.387,277271.107,93.33500000000001,6527
391543.55100000004,277269.71,93.394,6527
391541.929,277268.475,93.496,6527
391540.044,277267.041,93.492,6527
391538.36,277265.757,93.59,6527
391536.577,277264.39900000003,93.57300000000001,6527
391534.777,277263.03,93.623,6527
391553.945,277280.429,92.909,6527
391552.202,277279.103,92.968,6527
391550.379,277277.712,93.096,6527
391548.691,277276.429,93.178,6527
391546.846,277275.02400000003,93.155,6527
391545.069,277273.672,93.342,6527
391543.266,277272.301,93.27,6527
391541.642,277271.06200000003,93.379,6527
391539.786,277269.648,93.392,6527
391538.01900000003,277268.306,93.434,6527
391536.246,277266.957,93.499,6527
391534.407,277265.556,93.578,6527
391532.683,277264.243,93.584,6527
391530.904,277262.891,93.551,6527
391544.156,277279.67,93.069,6527
391542.439,277278.36,93.154,6527
391540.66000000003,277277.011,93.227,6527
391538.80700000003,277275.601,93.223,6527
391537.166,277274.35,93.273,6527
391535.27400000003,277272.909,93.302,6527
391533.517,277271.574,93.423,6527
391531.711,277270.195,93.502,6527
391529.998,277268.896,93.46300000000001,6527
391528.231,277267.55,93.509,6527
391526.441,277266.188,93.519,6527
391524.741,277264.895,93.561,6527
391522.925,277263.516,93.548,6527
391549.681,277280.38,92.95100000000001,6527
391547.911,277279.031,92.99,6527
391546.131,277277.676,93.072,6527
391544.295,277276.278,93.125,6527
391542.585,277274.978,93.184,6527
391540.689,277273.53500000003,93.223,6527
391539.028,277272.27400000003,93.348,6527
391537.28500000003,277270.945,93.299,6527
391535.50800000003,277269.592,93.378,6527
391533.795,277268.286,93.46300000000001,6527
391531.942,277266.875,93.473,6527
391530.298,277265.627,93.538,6527
391528.422,277264.2,93.505,6527
391526.702,277262.891,93.505,6527
391528.94,277274.223,93.512,6527
391527.117,277272.835,93.528,6527
391525.37,277271.509,93.617,6527
391523.62,277270.176,93.604,6527
391521.811,277268.798,93.578,6527
391520.17,277267.55,93.633,6527
391518.373,277266.186,93.554,6527
391516.636,277264.863,93.616,6527
391514.824,277263.485,93.724,6527
391540.67100000003,277280.279,93.131,6527
391538.858,277278.901,93.214,6527
391537.178,277277.624,93.279,6527
391535.315,277276.203,93.322,6527
391533.664,277274.949,93.401,6527
391531.782,277273.515,93.404,6527
391530.141,277272.267,93.446,6527
391528.368,277270.915,93.519,6527
391526.631,277269.593,93.581,6527
391524.95,277268.315,93.538,6527
391523.101,277266.908,93.532,6527
391521.496,277265.686,93.584,6527
391519.67,277264.295,93.62,6527
391517.936,277262.979,93.66,6527
391516.93700000003,277271.615,93.528,6527
391515.233,277270.318,93.58800000000001,6527
391513.417,277268.94,93.581,6527
391511.696,277267.63,93.584,6527
391508.09,277264.88300000003,93.991,6527
391506.41000000003,277263.61,93.59400000000001,6527
391532.659,277280.052,93.264,6527
391530.83,277278.661,93.293,6527
391529.119,277277.355,93.375,6527
391527.29600000003,277275.97000000003,93.388,6527
391525.662,277274.725,93.418,6527
391523.793,277273.305,93.477,6527
391522.07300000003,277271.992,93.48,6527
391520.273,277270.623,93.533,6527
391518.467,277269.252,93.48700000000001,6527
391516.73,277267.929,93.552,6527
391514.907,277266.541,93.57900000000001,6527
391513.309,277265.326,93.602,6527
391535.941,277279.552,93.23,6527
391534.112,277278.16000000003,93.387,6527
391532.411,277276.864,93.423,6527
391530.58900000004,277275.479,93.437,6527
391513.243,277273.706,93.574,6527
391511.387,277272.295,93.59700000000001,6527
391509.703,277271.015,93.696,6527
391507.97000000003,277269.695,93.637,6527
391504.509,277267.063,93.59700000000001,6527
391502.696,277265.685,93.58800000000001,6527
391501.005,277264.398,93.607,6527
391499.23600000003,277263.055,93.555,6527
391523.354,277279.565,93.408,6527
391521.607,277278.232,93.497,6527
391519.831,277276.88,93.461,6527
391518.022,277275.50800000003,93.543,6527
391516.364,277274.244,93.539,6527
391514.521,277272.843,93.516,6527
391512.87,277271.589,93.615,6527
391510.995,277270.159,93.605,6527
391509.35000000003,277268.911,93.673,6527
391505.853,277266.249,93.666,6527
391504.169,277264.969,93.653,6527
391502.346,277263.58400000003,93.555,6527
391527.50200000004,277279.656,93.378,6527
391525.653,277278.248,93.364,6527
391524.00800000003,277277.0,93.42,6527
391522.20900000003,277275.629,93.476,6527
391520.512,277274.335,93.512,6527
391518.715,277272.97000000003,93.538,6527
391510.025,277279.327,93.45400000000001,6527
391508.239,277277.965,93.464,6527
391506.518,277276.659,93.464,6527
391504.673,277275.255,93.45400000000001,6527
391502.965,277273.955,93.523,6527
391499.39900000003,277271.244,93.653,6527
391497.72500000003,277269.97000000003,93.483,6527
391496.021,277268.677,93.42,6527
391494.30700000003,277267.373,93.401,6527
391492.468,277265.972,93.378,6527
391490.81,277264.715,93.391,6527
391515.58900000004,277279.35,93.45100000000001,6527
391513.958,277278.112,93.45700000000001,6527
391512.109,277276.704,93.461,6527
391510.408,277275.411,93.503,6527
391508.655,277274.075,93.51,6527
391506.76300000004,277272.638,93.556,6527
391505.177,277271.436,93.526,6527
391501.67100000003,277268.764,93.549,6527
391499.84500000003,277267.38,93.464,6527
391498.118,277266.063,93.497,6527
391496.371,277264.734,93.493,6527
391494.542,277263.343,93.438,6527
391521.928,277280.314,93.405,6527
391520.096,277278.923,93.45100000000001,6527
391518.359,277277.598,93.523,6527
391516.695,277276.337,93.533,6527
391514.892,277274.966,93.48,6527
391500.185,277280.42100000003,93.474,6527
391498.402,277279.066,93.464,6527
391496.702,277277.76900000003,93.526,6527
391493.281,277275.173,93.45400000000001,6527
391491.491,277273.811,93.369,6527
391503.52400000003,277279.28500000003,93.547,6527
391501.738,277277.929,93.56,6527
391500.034,277276.636,93.61200000000001,6527
391496.471,277273.925,93.724,6527
391494.781,277272.639,93.616,6527
391493.06,277271.333,93.501,6527
391491.396,277270.06200000003,93.553,6527
391507.97500000003,277280.454,93.465,6527
391506.195,277279.102,93.44200000000001,6527
391504.517,277277.828,93.514,6527
391502.688,277276.435,93.57600000000001,6527
391500.91500000004,277275.086,93.534,6527
391497.431,277272.43700000003,93.458,6527
391495.76,277271.167,93.527,6527
391493.882,277269.74,93.527,6527
391492.234,277268.485,93.501,6527
391496.267,277280.49700000003,93.373,6527
391494.484,277279.14400000003,93.485,6527
391491.037,277276.522,93.409,6527
391488.179,277263.411,93.47,6527
391489.332,277270.818,93.523,6527
391490.249,277272.84500000003,93.496,6527
391490.37200000003,277276.873,93.506,6527
391587.94,277263.242,93.57000000000001,6527
391588.87,277265.288,93.983,6527
391585.481,277264.28500000003,93.57600000000001,6527
391586.438,277266.398,93.688,6527
391582.977,277264.795,93.664,6527
391583.897,277266.821,93.687,6527
391578.648,277263.762,92.933,6527
391579.478,277265.592,93.412,6527
391580.412,277267.654,93.553,6527
391581.299,277269.609,93.57600000000001,6527
391580.098,277263.007,93.015,6527
391580.922,277264.82,93.537,6527
391581.88300000003,277266.941,93.619,6527
391582.79000000004,277268.945,93.613,6527
391577.468,277264.423,92.974,6527
391578.305,277266.262,93.43,6527
391579.219,277268.282,93.581,6527
391580.139,277270.31200000003,93.602,6527
391574.218,277264.397,93.187,6527
391575.159,277266.479,93.06,6527
391576.071,277268.492,93.548,6527
391576.935,277270.401,93.699,6527
391577.856,277272.431,93.72200000000001,6527
391571.327,277263.863,93.194,6527
391572.344,277266.112,93.115,6527
391573.251,277268.109,93.004,6527
391574.168,277270.132,93.581,6527
391575.065,277272.112,93.637,6527
391576.016,277274.207,93.683,6527
391569.315,277263.801,93.197,6527
391570.31200000003,277265.992,93.069,6527
391571.20900000003,277267.976,93.105,6527
391572.146,277270.051,93.105,6527
391572.957,277271.835,93.502,6527
391573.944,277274.012,93.634,6527
391574.821,277275.947,93.821,6527
391566.881,277263.936,93.128,6527
391567.874,277266.126,93.099,6527
391568.781,277268.129,93.089,6527
391569.765,277270.303,92.905,6527
391570.629,277272.211,93.374,6527
391571.529,277274.195,93.519,6527
391572.48600000003,277276.308,93.624,6527
391563.724,277263.472,93.348,6527
391564.734,277265.69800000003,93.217,6527
391565.631,277267.68200000003,93.151,6527
391566.59500000003,277269.806,93.102,6527
391567.525,277271.862,93.04,6527
391568.416,277273.826,93.348,6527
391569.326,277275.833,93.66,6527
391570.197,277277.761,93.641,6527
391561.844,277262.913,93.34100000000001,6527
391562.744,277264.904,93.242,6527
391563.728,277267.074,93.174,6527
391564.618,277269.045,93.138,6527
391565.56200000003,277271.13,93.099,6527
391566.506,277273.206,92.974,6527
391567.35000000003,277275.069,93.47,6527
391568.297,277277.157,93.647,6527
391569.147,277279.036,93.666,6527
391560.789,277263.47000000003,93.376,6527
391561.71,277265.503,93.264,6527
391562.706,277267.706,93.212,6527
391563.607,277269.69,93.14,6527
391564.567,277271.814,93.09,6527
391565.504,277273.886,92.982,6527
391566.375,277275.795,93.44800000000001,6527
391567.281,277277.8,93.65,6527
391568.227,277279.889,93.614,6527
391557.534,277262.904,93.274,6527
391558.511,277265.068,93.212,6527
391559.404,277267.042,93.051,6527
391560.401,277269.235,93.13,6527
391561.31200000003,277271.248,92.96900000000001,6527
391562.279,277273.389,92.982,6527
391563.222,277275.468,92.851,6527
391564.07,277277.337,93.327,6527
391565.01300000004,277279.422,93.508,6527
391554.539,277263.757,93.494,6527
391555.42600000004,277265.718,93.372,6527
391556.42,277267.915,93.336,6527
391557.36,277269.99,93.208,6527
391558.34,277272.154,93.149,6527
391559.294,277274.256,93.166,6527
391560.234,277276.335,93.031,6527
391561.168,277278.397,93.065,6527
391561.982,277280.194,93.531,6527
391552.634,277264.928,93.43900000000001,6527
391553.521,277266.88300000003,93.436,6527
391554.50800000003,277269.06,93.34400000000001,6527
391555.445,277271.132,93.226,6527
391556.371,277273.175,93.196,6527
391557.335,277275.306,93.131,6527
391558.232,277277.29,93.059,6527
391559.235,277279.503,93.081,6527
391550.571,277264.12200000003,93.44500000000001,6527
391551.468,277266.109,93.35900000000001,6527
391552.445,277268.259,93.327,6527
391553.408,277270.397,93.238,6527
391554.322,277272.41000000003,93.19,6527
391555.299,277274.565,93.154,6527
391556.219,277276.601,93.039,6527
391557.226,277278.82,93.052,6527
391547.91500000004,277263.418,93.402,6527
391548.922,277265.64,93.389,6527
391549.83900000004,277267.664,93.297,6527
391550.799,277269.78500000003,93.251,6527
391551.743,277271.873,93.19500000000001,6527
391552.66000000003,277273.9,93.10000000000001,6527
391553.657,277276.096,93.049,6527
391554.56,277278.093,92.944,6527
391545.38300000003,277262.993,93.48400000000001,6527
391546.347,277265.117,93.533,6527
391547.284,277267.186,93.415,6527
391548.221,277269.259,93.395,6527
391549.16500000004,277271.344,93.354,6527
391550.054,277273.311,93.206,6527
391551.02400000003,277275.449,93.21900000000001,6527
391551.94800000003,277277.489,93.095,6527
391552.885,277279.561,93.081,6527
391555.542,277280.255,92.894,6527
391544.037,277264.161,93.605,6527
391544.97000000003,277266.233,93.48100000000001,6527
391545.934,277268.36100000003,93.517,6527
391546.825,277270.325,93.372,6527
391547.798,277272.47000000003,93.366,6527
391548.718,277274.503,93.258,6527
391549.68200000003,277276.634,93.297,6527
391550.626,277278.719,93.14,6527
391539.097,277265.163,93.507,6527
391540.038,277267.226,93.392,6527
391540.965,277269.286,93.422,6527
391541.879,277271.302,93.346,6527
391542.898,277273.555,93.245,6527
391543.781,277275.503,93.261,6527
391544.792,277277.738,93.209,6527
391545.72500000003,277279.804,93.121,6527
391541.335,277263.434,93.599,6527
391542.259,277265.471,93.458,6527
391543.219,277267.59500000003,93.51,6527
391544.136,277269.625,93.399,6527
391545.13300000003,277271.822,93.35300000000001,6527
391546.047,277273.84500000003,93.261,6527
391547.007,277275.966,93.218,6527
391547.901,277277.94,93.156,6527
391548.878,277280.094,93.141,6527
391535.536,277264.67100000003,93.605,6527
391536.503,277266.806,93.514,6527
391537.443,277268.884,93.477,6527
391538.387,277270.966,93.428,6527
391539.344,277273.085,93.392,6527
391540.238,277275.055,93.34,6527
391541.191,277277.163,93.32300000000001,6527
391542.112,277279.196,93.208,6527
391538.14900000003,277263.068,93.596,6527
391533.347,277263.713,93.71900000000001,6527
391534.254,277265.72000000003,93.66,6527
391535.162,277267.724,93.614,6527
391536.162,277269.93700000003,93.509,6527
391537.052,277271.902,93.476,6527
391538.022,277274.043,93.476,6527
391538.943,277276.079,93.342,6527
391539.92,277278.239,93.294,6527
391540.86,277280.31200000003,93.277,6527
391531.75200000004,277263.077,93.71600000000001,6527
391532.712,277265.201,93.65,6527
391533.656,277267.28,93.611,6527
391534.626,277269.427,93.575,6527
391535.53,277271.42100000003,93.45700000000001,6527
391536.517,277273.598,93.46300000000001,6527
391537.391,277275.536,93.398,6527
391538.381,277277.723,93.371,6527
391539.30100000004,277279.749,93.271,6527
391526.895,277264.183,93.631,6527
391527.813,277266.213,93.618,6527
391528.716,277268.21,93.58500000000001,6527
391529.7,277270.38,93.604,6527
391530.597,277272.364,93.506,6527
391531.55700000003,277274.489,93.44800000000001,6527
391532.474,277276.512,93.458,6527
391533.395,277278.542,93.343,6527
391529.746,277262.926,93.60300000000001,6527
391530.703,277265.044,93.657,6527
391531.637,277267.1,93.572,6527
391532.567,277269.159,93.58800000000001,6527
391533.529,277271.279,93.537,6527
391534.406,277273.217,93.468,6527
391535.367,277275.342,93.402,6527
391536.27400000003,277277.346,93.264,6527
391537.226,277279.451,93.363,6527
391526.802,277269.561,93.556,6527
391527.762,277271.688,93.589,6527
391528.659,277273.672,93.494,6527
391529.666,277275.889,93.48400000000001,6527
391530.565,277277.879,93.372,6527
391531.50200000004,277279.951,93.35300000000001,6527
391524.021,277263.422,93.634,6527
391524.951,277265.472,93.67,6527
391519.54000000004,277263.473,93.755,6527
391520.444,277265.473,93.601,6527
391521.441,277267.676,93.634,6527
391522.353,277269.696,93.529,6527
391523.32,277271.83,93.539,6527
391524.227,277273.831,93.506,6527
391525.141,277275.85,93.526,6527
391526.098,277277.962,93.493,6527
391526.999,277279.949,93.381,6527
391523.846,277267.457,93.647,6527
391524.766,277269.49,93.622,6527
391525.713,277271.575,93.655,6527
391526.624,277273.588,93.57900000000001,6527
391527.62,277275.798,93.494,6527
391528.53,277277.802,93.44800000000001,6527
391529.52400000003,277279.995,93.399,6527
391521.962,277263.293,93.657,6527
391522.929,277265.424,93.667,6527
391525.898,277267.564,93.57900000000001,6527
391517.255,277264.848,93.73100000000001,6527
391518.235,277267.009,93.656,6527
391519.139,277269.012,93.60000000000001,6527
391520.118,277271.173,93.646,6527
391521.005,277273.137,93.59700000000001,6527
391521.952,277275.226,93.529,6527
391522.935,277277.393,93.549,6527
391523.853,277279.423,93.427,6527
391516.384,277262.927,93.767,6527
391517.89,277279.88300000003,93.58500000000001,6527
391514.54600000003,277265.338,93.633,6527
391515.512,277267.476,93.72800000000001,6527
391516.42600000004,277269.493,93.64,6527
391517.367,277271.568,93.59400000000001,6527
391518.31,277273.653,93.63,6527
391519.18700000003,277275.59500000003,93.548,6527
391520.131,277277.68,93.59,6527
391521.032,277279.667,93.47500000000001,6527
391515.719,277265.086,93.656,6527
391516.606,277267.037,93.646,6527
391517.586,277269.204,93.659,6527
391518.5,277271.227,93.561,6527
391519.487,277273.401,93.666,6527
391520.368,277275.349,93.561,6527
391521.338,277277.493,93.544,6527
391522.25800000003,277279.522,93.531,6527
391507.369,277264.387,93.667,6527
391509.183,277268.39400000003,93.654,6527
391510.12700000004,277270.476,93.70100000000001,6527
391511.048,277272.516,93.537,6527
391512.00800000003,277274.634,93.586,6527
391512.91500000004,277276.637,93.537,6527
391513.879,277278.765,93.553,6527
391510.37700000004,277263.28500000003,94.26,6527
391512.281,277267.498,93.646,6527
391513.231,277269.593,93.643,6527
391514.142,277271.603,93.679,6527
391515.08900000004,277273.696,93.584,6527
391516.032,277275.78500000003,93.627,6527
391516.89900000003,277277.7,93.611,6527
391501.128,277264.494,93.628,6527
391502.061,277266.553,93.733,6527
391502.968,277268.55,93.788,6527
391504.886,277272.789,93.655,6527
391505.76,277274.721,93.70100000000001,6527
391506.74,277276.888,93.599,6527
391507.663,277278.928,93.553,6527
391502.99,277263.0,93.651,6527
391503.947,277265.115,93.703,6527
391504.847,277267.096,93.815,6527
391506.761,277271.335,93.68,6527
391507.675,277273.348,93.694,6527
391508.609,277275.411,93.691,6527
391509.493,277277.362,93.57300000000001,6527
391510.48600000003,277279.558,93.60900000000001,6527
391505.325,277264.395,93.608,6527
391506.20900000003,277266.343,94.153,6527
391508.12200000003,277270.579,93.58200000000001,6527
391509.033,277272.586,93.514,6527
391510.01,277274.746,93.55,6527
391510.93,277276.783,93.514,6527
391511.887,277278.89400000003,93.468,6527
391493.816,277263.732,93.496,6527
391494.696,277265.67,93.506,6527
391495.63300000003,277267.745,93.57300000000001,6527
391496.527,277269.716,93.48100000000001,6527
391497.454,277271.765,93.504,6527
391499.28500000003,277275.815,93.589,6527
391500.212,277277.864,93.616,6527
391501.142,277279.917,93.517,6527
391496.19800000003,277263.228,93.578,6527
391497.078,277265.17,93.58800000000001,6527
391498.03500000003,277267.281,93.523,6527
391498.946,277269.301,93.634,6527
391501.694,277275.37,93.611,6527
391502.634,277277.449,93.547,6527
391503.514,277279.39400000003,93.553,6527
391498.346,277263.023,93.572,6527
391499.28,277265.082,93.562,6527
391500.22000000003,277267.157,93.608,6527
391501.108,277269.12200000003,93.552,6527
391503.015,277273.325,93.621,6527
391503.935,277275.371,93.668,6527
391504.885,277277.466,93.556,6527
391505.786,277279.457,93.543,6527
391492.037,277276.797,93.642,6527
391490.953,277269.536,93.58500000000001,6527
391491.836,277271.493,93.542,6527
391492.81,277273.64400000003,93.598,6527
391493.69,277275.586,93.605,6527
391491.058,277263.651,93.46000000000001,6527
391492.031,277265.795,93.516,6527
391492.911,277267.743,93.5,6527
391493.855,277269.828,93.519,6527
391494.756,277271.819,93.5,6527
391495.689,277273.878,93.601,6527
391497.553,277277.999,93.57600000000001,6527
391498.49700000003,277280.081,93.619,6527
391487.646,277261.043,93.46600000000001,6527
391495.227,277262.759,93.604,6527
391487.996,277259.865,93.503,6527
391490.474,277260.425,93.414,6527
391492.942,277260.983,93.58200000000001,6527
391495.439,277261.54600000003,93.539,6527
391498.012,277262.129,93.559,6527
391500.375,277262.664,93.7,6527
391488.337,277257.37200000003,93.339,6527
391490.791,277257.926,93.3,6527
391493.318,277258.496,93.493,6527
391495.904,277259.082,93.45100000000001,6527
391498.205,277259.601,93.552,6527
391500.909,277260.216,93.569,6527
391503.242,277260.744,93.651,6527
391505.802,277261.32,93.562,6527
391508.135,277261.849,93.561,6527
391510.577,277262.403,93.59700000000001,6527
391486.70900000003,277254.904,93.236,6527
391489.292,277255.49,93.262,6527
391491.737,277256.045,93.383,6527
391494.261,277256.614,93.39,6527
391496.735,277257.174,93.386,6527
391499.052,277257.7,93.435,6527
391501.631,277258.283,93.47200000000001,6527
391503.974,277258.814,93.57300000000001,6527
391506.554,277259.397,93.527,6527
391509.018,277259.955,93.69800000000001,6527
391511.355,277260.483,93.60600000000001,6527
391516.405,277261.629,93.849,6527
391518.886,277262.186,93.60600000000001,6527
391521.246,277262.721,93.58,6527
391486.954,277253.13,93.299,6527
391489.33,277253.664,93.272,6527
391491.70900000003,277254.206,93.354,6527
391494.36100000003,277254.805,93.345,6527
391496.734,277255.343,93.502,6527
391499.241,277255.91000000003,93.384,6527
391501.719,277256.471,93.574,6527
391504.173,277257.025,93.541,6527
391506.697,277257.597,93.558,6527
391509.168,277258.154,93.55,6527
391511.672,277258.718,93.534,6527
391513.969,277259.24,93.645,6527
391519.06200000003,277260.393,93.69500000000001,6527
391521.579,277260.96,93.616,6527
391524.087,277261.531,93.616,6527
391526.472,277262.068,93.636,6527
391529.003,277262.638,93.59,6527
391499.62700000004,277254.028,93.57900000000001,6527
391502.09500000003,277254.589,93.569,6527
391504.596,277255.153,93.539,6527
391507.202,277255.742,93.71300000000001,6527
391509.62700000004,277256.293,93.717,6527
391512.26900000003,277256.889,93.7,6527
391514.552,277257.403,93.772,6527
391521.956,277259.079,93.782,6527
391524.493,277259.652,93.753,6527
391526.836,277260.184,93.778,6527
391529.353,277260.751,93.706,6527
391531.75800000003,277261.295,93.771,6527
391534.371,277261.884,93.71900000000001,6527
391536.658,277262.403,93.64,6527
391487.188,277251.216,93.384,6527
391492.104,277252.327,93.39,6527
391494.78500000003,277252.933,93.44200000000001,6527
391488.451,277248.743,93.249,6527
391490.922,277249.304,93.413,6527
391493.528,277249.893,93.315,6527
391495.973,277250.446,93.427,6527
391498.529,277251.023,93.509,6527
391501.04600000003,277251.593,93.59100000000001,6527
391503.465,277252.141,93.578,6527
391505.985,277252.711,93.58,6527
391508.35000000003,277253.248,93.624,6527
391510.942,277253.83400000003,93.601,6527
391513.338,277254.375,93.71900000000001,6527
391518.25,277255.487,93.673,6527
391523.337,277256.636,93.715,6527
391525.71,277257.174,93.803,6527
391528.243,277257.74700000003,93.675,6527
391530.54000000004,277258.263,93.69800000000001,6527
391533.162,277258.859,93.662,6527
391535.479,277259.381,93.642,6527
391537.907,277259.93200000003,93.669,6527
391540.402,277260.495,93.652,6527
391542.68200000003,277261.007,93.56700000000001,6527
391545.255,277261.59,93.531,6527
391547.506,277262.099,93.46900000000001,6527
391549.987,277262.66000000003,93.432,6527
391491.91000000003,277246.984,93.279,6527
391494.529,277247.57300000003,93.377,6527
391496.895,277248.11100000003,93.43,6527
391499.465,277248.693,93.427,6527
391501.911,277249.24700000003,93.46000000000001,6527
391504.356,277249.801,93.496,6527
391506.955,277250.391,93.568,6527
391509.387,277250.942,93.673,6527
391511.957,277251.518,93.59400000000001,6527
391514.326,277252.059,93.666,6527
391516.93200000003,277252.645,93.765,6527
391519.298,277253.179,93.65,6527
391526.619,277254.839,93.775,6527
391531.433,277255.928,93.724,6527
391533.989,277256.504,93.646,6527
391536.37200000003,277257.045,93.672,6527
391538.738,277257.576,93.659,6527
391541.275,277258.153,93.636,6527
391543.598,277258.678,93.636,6527
391546.13800000004,277259.252,93.534,6527
391548.54000000004,277259.793,93.505,6527
391550.942,277260.338,93.495,6527
391553.374,277260.885,93.446,6527
391555.733,277261.419,93.436,6527
391558.309,277262.002,93.327,6527
391560.656,277262.534,93.383,6527
391541.463,277256.34500000003,93.696,6527
391543.954,277256.908,93.578,6527
391546.294,277257.43700000003,93.437,6527
391548.795,277258.004,93.526,6527
391551.341,277258.577,93.43,6527
391553.694,277259.11100000003,93.503,6527
391556.28,277259.694,93.411,6527
391558.554,277260.21,93.404,6527
391561.042,277260.77,93.385,6527
391563.362,277261.29600000003,93.299,6527
391565.803,277261.847,93.283,6527
391568.32300000003,277262.417,93.158,6527
391487.208,277244.077,93.137,6527
391489.656,277244.631,93.257,6527
391492.259,277245.217,93.23400000000001,6527
391494.697,277245.771,93.421,6527
391497.168,277246.328,93.32300000000001,6527
391499.748,277246.911,93.352,6527
391502.249,277247.482,93.497,6527
391507.184,277248.59500000003,93.559,6527
391509.721,277249.169,93.602,6527
391512.162,277249.72000000003,93.543,6527
391514.65,277250.283,93.667,6527
391517.09500000003,277250.83400000003,93.618,6527
391519.454,277251.369,93.763,6527
391521.938,277251.93,93.615,6527
391529.284,277253.591,93.696,6527
391531.696,277254.136,93.683,6527
391534.216,277254.706,93.62,6527
391536.572,277255.241,93.68,6527
391539.13300000003,277255.819,93.598,6527
391486.118,277242.452,93.105,6527
391488.63800000004,277243.025,93.186,6527
391491.05,277243.569,93.232,6527
391493.664,277244.161,93.217,6527
391496.037,277244.699,93.371,6527
391498.669,277245.294,93.407,6527
391501.00800000003,277245.822,93.406,6527
391508.353,277247.485,93.616,6527
391510.955,277248.074,93.613,6527
391513.318,277248.609,93.665,6527
391515.864,277249.186,93.636,6527
391518.261,277249.727,93.664,6527
391520.762,277250.294,93.733,6527
391523.23600000003,277250.851,93.753,6527
391530.555,277252.51,93.776,6527
391533.069,277253.077,93.694,6527
391535.52,277253.631,93.763,6527
391538.037,277254.201,93.697,6527
391540.522,277254.761,93.655,6527
391542.927,277255.306,93.635,6527
391545.42100000003,277255.869,93.618,6527
391547.741,277256.39400000003,93.61200000000001,6527
391550.206,277256.951,93.628,6527
391555.09500000003,277258.056,93.493,6527
391557.494,277258.598,93.47,6527
391559.92600000004,277259.152,93.43,6527
391562.443,277259.719,93.378,6527
391564.805,277260.253,93.378,6527
391567.276,277260.813,93.25,6527
391569.692,277261.358,93.26,6527
391572.091,277261.89900000003,93.168,6527
391574.512,277262.447,93.10900000000001,6527
391485.66000000003,277240.522,93.09,6527
391488.066,277241.07,93.116,6527
391490.563,277241.634,93.146,6527
391492.985,277242.181,93.303,6527
391495.482,277242.748,93.254,6527
391497.993,277243.311,93.32000000000001,6527
391500.43700000003,277243.865,93.343,6527
391502.93200000003,277244.43200000003,93.385,6527
391505.386,277244.98600000003,93.523,6527
391507.979,277245.57300000003,93.581,6527
391510.355,277246.11100000003,93.568,6527
391512.984,277246.707,93.611,6527
391515.336,277247.238,93.643,6527
391517.75800000003,277247.78500000003,93.64,6527
391520.338,277248.368,93.683,6527
391525.365,277249.505,93.68900000000001,6527
391532.744,277251.174,93.745,6527
391535.086,277251.702,93.686,6527
391537.587,277252.268,93.67,6527
391539.963,277252.80700000003,93.683,6527
391542.523,277253.38300000003,93.61,6527
391544.836,277253.908,93.675,6527
391547.39900000003,277254.488,93.619,6527
391549.831,277255.039,93.56700000000001,6527
391552.305,277255.596,93.511,6527
391554.71400000004,277256.141,93.501,6527
391557.10000000003,277256.681,93.455,6527
391559.613,277257.248,93.396,6527
391561.97000000003,277257.782,93.462,6527
391564.449,277258.342,93.33800000000001,6527
391566.808,277258.877,93.331,6527
391569.12200000003,277259.396,93.233,6527
391571.57300000003,277259.95,93.147,6527
391573.965,277260.492,93.21600000000001,6527
391576.43,277261.049,93.072,6527
391578.691,277261.56200000003,93.049,6527
391581.227,277262.134,93.059,6527
391583.853,277262.733,93.525,6527
391490.297,277238.642,93.031,6527
391492.873,277239.225,93.139,6527
391495.305,277239.779,93.31,6527
391497.884,277240.358,93.247,6527
391500.329,277240.912,93.36200000000001,6527
391502.925,277241.502,93.421,6527
391505.278,277242.033,93.35600000000001,6527
391507.742,277242.591,93.428,6527
391512.83900000004,277243.741,93.545,6527
391515.435,277244.33,93.611,6527
391517.863,277244.88,93.617,6527
391520.302,277245.428,93.565,6527
391522.73,277245.982,93.663,6527
391525.201,277246.539,93.758,6527
391527.695,277247.103,93.64,6527
391535.056,277248.76900000003,93.748,6527
391540.045,277249.89400000003,93.687,6527
391542.47000000003,277250.441,93.617,6527
391544.925,277250.999,93.608,6527
391547.314,277251.537,93.64,6527
391549.893,277252.12,93.617,6527
391552.16000000003,277252.632,93.601,6527
391554.599,277253.18200000003,93.47,6527
391556.968,277253.721,93.473,6527
391559.348,277254.259,93.503,6527
391561.855,277254.826,93.434,6527
391564.192,277255.354,93.467,6527
391566.722,277255.924,93.444,6527
391569.006,277256.44,93.385,6527
391571.441,277256.991,93.257,6527
391573.853,277257.534,93.181,6527
391576.30700000003,277258.088,93.10600000000001,6527
391578.745,277258.639,93.08800000000001,6527
391581.033,277259.155,93.029,6527
391583.602,277259.738,93.013,6527
391588.781,277260.91000000003,93.521,6527
391591.219,277261.465,93.60300000000001,6527
391545.297,277248.936,93.694,6527
391547.753,277249.49,93.589,6527
391550.145,277250.031,93.638,6527
391552.59,277250.582,93.61200000000001,6527
391555.104,277251.152,93.635,6527
391557.374,277251.664,93.618,6527
391559.951,277252.24700000003,93.51,6527
391562.234,277252.766,93.527,6527
391564.77400000003,277253.336,93.517,6527
391567.173,277253.88,93.415,6527
391569.52,277254.412,93.379,6527
391571.99700000003,277254.969,93.343,6527
391574.386,277255.511,93.313,6527
391576.91000000003,277256.08,93.19800000000001,6527
391579.197,277256.596,93.138,6527
391581.753,277257.172,93.086,6527
391584.169,277257.72000000003,93.027,6527
391586.544,277258.25800000003,92.974,6527
391589.255,277258.873,93.526,6527
391591.612,277259.405,93.624,6527
391498.3,277238.305,93.255,6527
391500.836,277238.881,93.37,6527
391503.386,277239.458,93.34,6527
391505.887,277240.025,93.485,6527
391508.503,277240.614,93.403,6527
391510.833,277241.139,93.563,6527
391513.366,277241.716,93.599,6527
391515.762,277242.256,93.626,6527
391518.295,277242.83,93.659,6527
391520.825,277243.403,93.60300000000001,6527
391523.172,277243.931,93.71000000000001,6527
391525.814,277244.531,93.703,6527
391530.789,277245.655,93.7,6527
391535.68200000003,277246.762,93.808,6527
391538.13,277247.313,93.779,6527
391540.538,277247.86100000003,93.763,6527
391543.006,277248.415,93.681,6527
391508.245,277238.848,93.48400000000001,6527
391510.64400000003,277239.389,93.519,6527
391513.13800000004,277239.953,93.558,6527
391515.678,277240.529,93.512,6527
391518.166,277241.09,93.637,6527
391520.70900000003,277241.665,93.68900000000001,6527
391523.059,277242.197,93.637,6527
391525.579,277242.767,93.647,6527
391528.031,277243.318,93.617,6527
391530.482,277243.875,93.676,6527
391537.797,277245.528,93.699,6527
391542.683,277246.632,93.712,6527
391545.047,277247.167,93.69500000000001,6527
391547.521,277247.728,93.721,6527
391549.89,277248.263,93.544,6527
391552.348,277248.817,93.633,6527
391554.905,277249.397,93.557,6527
391557.228,277249.922,93.652,6527
391559.653,277250.469,93.501,6527
391562.101,277251.01900000003,93.492,6527
391564.586,277251.583,93.459,6527
391567.106,277252.153,93.419,6527
391569.478,277252.688,93.43900000000001,6527
391572.009,277253.262,93.327,6527
391574.25,277253.768,93.268,6527
391576.718,277254.325,93.21300000000001,6527
391579.064,277254.853,93.183,6527
391581.476,277255.4,93.113,6527
391583.973,277255.964,93.034,6527
391586.257,277256.476,92.97500000000001,6527
391588.794,277257.053,92.897,6527
391591.485,277257.665,93.494,6527
391593.999,277258.232,93.458,6527
391517.49700000003,277238.496,93.543,6527
391519.92600000004,277239.044,93.635,6527
391522.364,277239.59500000003,93.661,6527
391524.835,277240.152,93.664,6527
391527.195,277240.68700000003,93.72,6527
391529.81,277241.279,93.654,6527
391532.186,277241.814,93.742,6527
391542.074,277244.053,93.71600000000001,6527
391544.42,277244.581,93.755,6527
391546.89400000003,277245.142,93.604,6527
391549.237,277245.669,93.72500000000001,6527
391551.777,277246.243,93.617,6527
391554.21,277246.794,93.663,6527
391556.675,277247.351,93.67,6527
391559.234,277247.931,93.611,6527
391561.577,277248.45900000003,93.565,6527
391564.078,277249.026,93.476,6527
391566.37200000003,277249.542,93.509,6527
391568.803,277250.092,93.383,6527
391571.212,277250.636,93.39,6527
391573.706,277251.2,93.387,6527
391576.108,277251.741,93.288,6527
391578.504,277252.283,93.268,6527
391581.00800000003,277252.85,93.108,6527
391583.367,277253.381,93.108,6527
391585.795,277253.929,92.986,6527
391588.202,277254.476,92.98700000000001,6527
391590.614,277255.02,93.01,6527
391593.362,277255.64400000003,93.452,6527
391595.69800000003,277256.172,93.508,6527
391598.235,277256.746,93.528,6527
391529.642,277238.463,93.691,6527
391532.188,277239.04,93.767,6527
391534.556,277239.577,93.82300000000001,6527
391537.063,277240.14,93.73400000000001,6527
391544.43,277241.809,93.78,6527
391546.987,277242.386,93.787,6527
391549.47500000003,277242.946,93.751,6527
391551.831,277243.481,93.73100000000001,6527
391554.29600000003,277244.038,93.651,6527
391556.609,277244.55700000003,93.717,6527
391559.166,277245.137,93.648,6527
391561.585,277245.685,93.664,6527
391563.974,277246.225,93.622,6527
391566.487,277246.792,93.563,6527
391568.873,277247.33,93.52,6527
391571.384,277247.897,93.458,6527
391573.651,277248.41000000003,93.44800000000001,6527
391576.24700000003,277248.996,93.47,6527
391578.56,277249.518,93.381,6527
391581.00800000003,277250.072,93.289,6527
391583.374,277250.606,93.214,6527
391585.737,277251.141,93.224,6527
391588.14900000003,277251.685,93.066,6527
391590.429,277252.201,93.004,6527
391593.00200000004,277252.781,92.997,6527
391595.516,277253.354,93.506,6527
