329536.781,241746.506,52.704,6527
329535.14900000003,241745.225,52.77,6527
329533.478,241743.918,52.773,6527
329531.846,241742.63700000002,52.835,6527
329530.168,241741.32700000002,52.806000000000004,6527
329528.537,241740.047,52.865,6527
329526.931,241738.785,52.898,6527
329525.293,241737.502,52.914,6527
329523.681,241736.244,52.953,6527
329522.01,241734.931,52.92,6527
329520.377,241733.65,52.996,6527
329518.765,241732.392,53.035000000000004,6527
329517.098,241731.082,53.025,6527
329515.446,241729.78900000002,52.93,6527
329513.781,241728.48200000002,52.976,6527
329512.17600000004,241727.22400000002,53.029,6527
329510.498,241725.911,52.999,6527
329508.886,241724.65,53.022,6527
329507.242,241723.363,52.983000000000004,6527
329505.636,241722.102,53.016,6527
329504.02400000003,241720.837,53.035000000000004,6527
329502.402,241719.573,52.993,6527
329500.79,241718.305,52.953,6527
329499.112,241716.995,52.973,6527
329497.5,241715.727,52.93,6527
329495.915,241714.487,52.894,6527
329494.237,241713.177,52.901,6527
329492.618,241711.90600000002,52.852000000000004,6527
329490.947,241710.59600000002,52.861000000000004,6527
329489.309,241709.312,52.911,6527
329537.38300000003,241749.257,52.724000000000004,6527
329535.83,241748.04200000002,52.691,6527
329534.146,241746.718,52.802,6527
329532.64900000003,241745.545,52.75,6527
329530.895,241744.173,52.835,6527
329529.284,241742.913,52.829,6527
329527.685,241741.658,52.93,6527
329525.98,241740.32200000001,52.891,6527
329524.374,241739.064,52.953,6527
329522.654,241737.715,52.996,6527
329521.118,241736.513,52.894,6527
329519.39,241735.16,52.937,6527
329517.841,241733.948,52.957,6527
329516.17600000004,241732.644,53.016,6527
329514.532,241731.358,53.012,6527
329512.98600000003,241730.143,53.042,6527
329511.25800000003,241728.79,53.075,6527
329509.791,241727.636,53.022,6527
329508.05,241726.277,52.989000000000004,6527
329506.474,241725.04200000002,53.035000000000004,6527
329504.863,241723.78100000002,53.052,6527
329503.155,241722.442,52.980000000000004,6527
329501.632,241721.249,52.983000000000004,6527
329499.898,241719.888,52.947,6527
329498.316,241718.653,52.996,6527
329496.615,241717.313,52.973,6527
329495.053,241716.098,52.954,6527
329493.375,241714.78100000002,52.905,6527
329491.674,241713.448,52.925000000000004,6527
329490.06200000003,241712.181,52.912,6527
329488.321,241710.825,52.908,6527
329486.771,241709.606,52.931000000000004,6527
329537.566,241753.003,52.628,6527
329535.855,241751.663,52.524,6527
329534.262,241750.412,52.668,6527
329532.617,241749.131,52.684000000000005,6527
329531.01900000003,241747.873,52.75,6527
329529.314,241746.54,52.756,6527
329527.683,241745.261,52.809000000000005,6527
329526.071,241744.0,52.796,6527
329524.433,241742.719,52.852000000000004,6527
329522.827,241741.454,52.848,6527
329521.156,241740.14800000002,52.868,6527
329519.518,241738.864,52.911,6527
329517.939,241737.628,52.927,6527
329516.294,241736.34100000001,52.891,6527
329514.721,241735.103,52.93,6527
329513.05,241733.794,52.947,6527
329511.461,241732.555,52.943,6527
329509.829,241731.278,53.016,6527
329508.188,241729.991,53.032000000000004,6527
329506.579,241728.729,53.065,6527
329504.911,241727.419,53.068,6527
329503.273,241726.135,53.085,6527
329501.621,241724.845,53.062,6527
329500.032,241723.603,53.039,6527
329498.365,241722.294,53.016,6527
329496.712,241721.0,52.957,6527
329495.047,241719.7,53.048,6527
329493.363,241718.38,52.976,6527
329491.689,241717.067,52.953,6527
329490.10000000003,241715.82200000001,52.888,6527
329488.514,241714.58000000002,52.901,6527
329486.876,241713.296,52.95,6527
329485.238,241712.01200000002,52.999,6527
329483.527,241710.677,52.973,6527
329481.941,241709.432,52.95,6527
329536.727,241755.472,52.369,6527
329535.167,241754.25,52.589,6527
329533.47500000003,241752.91700000002,52.615,6527
329531.896,241751.682,52.665,6527
329530.265,241750.401,52.704,6527
329528.60000000003,241749.095,52.747,6527
329527.015,241747.856,52.74,6527
329525.317,241746.528,52.77,6527
329523.827,241745.358,52.753,6527
329522.129,241744.028,52.773,6527
329520.55,241742.786,52.776,6527
329518.879,241741.483,52.802,6527
329517.27400000003,241740.218,52.838,6527
329515.662,241738.957,52.848,6527
329513.996,241737.654,52.924,6527
329512.404,241736.409,52.816,6527
329510.657,241735.038,52.947,6527
329509.167,241733.86800000002,52.953,6527
329507.496,241732.56100000002,52.980000000000004,6527
329505.858,241731.277,53.016,6527
329504.213,241729.99,52.989000000000004,6527
329502.48600000003,241728.634,53.016,6527
329500.93,241727.415,53.016,6527
329499.17600000004,241726.037,53.039,6527
329497.653,241724.844,53.055,6527
329495.978,241723.535,53.052,6527
329494.356,241722.264,52.983000000000004,6527
329492.718,241720.98,53.022,6527
329491.017,241719.644,53.029,6527
329489.454,241718.422,52.983000000000004,6527
329508.077,241734.578,52.956,6527
329506.416,241733.272,53.015,6527
329504.80100000004,241732.007,53.024,6527
329503.189,241730.746,53.041000000000004,6527
329501.577,241729.48500000002,53.051,6527
329499.939,241728.201,53.074,6527
329498.245,241726.86800000002,53.107,6527
329496.656,241725.62600000002,53.093,6527
329494.94800000003,241724.288,53.057,6527
329493.336,241723.027,53.051,6527
329487.746,241717.084,52.957,6527
329486.167,241715.843,52.994,6527
329484.463,241714.507,52.964,6527
329482.851,241713.246,52.987,6527
329481.199,241711.95200000002,52.954,6527
329479.534,241710.64500000002,53.01,6527
329477.968,241709.42,52.944,6527
329535.761,241756.27000000002,52.395,6527
329534.136,241754.996,52.539,6527
329532.537,241753.741,52.634,6527
329530.955,241752.503,52.644,6527
329529.32300000003,241751.222,52.693,6527
329527.69,241749.941,52.765,6527
329526.079,241748.68,52.769,6527
329524.5,241747.441,52.782000000000004,6527
329522.828,241746.135,52.788000000000004,6527
329521.223,241744.874,52.792,6527
329519.558,241743.571,52.870000000000005,6527
329517.881,241742.261,52.828,6527
329516.302,241741.019,52.811,6527
329514.696,241739.761,52.893,6527
329513.025,241738.451,52.857,6527
329511.387,241737.16700000002,52.916000000000004,6527
329509.721,241735.864,52.975,6527
329530.071,241755.729,52.746,6527
329528.42,241754.439,52.631,6527
329526.811,241753.177,52.654,6527
329525.08400000003,241751.828,52.7,6527
329523.568,241750.635,52.706,6527
329521.9,241749.329,52.739000000000004,6527
329520.284,241748.065,52.7,6527
329518.617,241746.76200000002,52.739000000000004,6527
329516.919,241745.429,52.759,6527
329515.313,241744.171,52.805,6527
329513.579,241742.812,52.798,6527
329512.056,241741.622,52.811,6527
329510.391,241740.316,52.847,6527
329508.839,241739.1,52.844,6527
329507.141,241737.77000000002,52.89,6527
329505.476,241736.465,52.942,6527
329503.924,241735.246,52.936,6527
329502.19,241733.89,52.942,6527
329500.608,241732.652,52.959,6527
329498.854,241731.276,53.031,6527
329497.33,241730.084,53.024,6527
329495.636,241728.75400000002,53.074,6527
329494.02400000003,241727.49,53.07,6527
329492.402,241726.222,53.054,6527
329490.708,241724.893,53.107,6527
329489.179,241723.69700000001,53.057,6527
329487.507,241722.38700000002,53.077,6527
329485.922,241721.146,53.08,6527
329484.277,241719.855,53.047000000000004,6527
329482.612,241718.552,53.152,6527
329481.053,241717.329,53.1,6527
329479.316,241715.97100000002,53.087,6527
329477.789,241714.775,53.084,6527
329476.058,241713.41700000002,53.097,6527
329474.433,241712.149,53.034,6527
329472.782,241710.855,52.992000000000004,6527
329471.163,241709.587,52.959,6527
329491.658,241721.709,53.021,6527
329490.052,241720.448,53.054,6527
329488.407,241719.161,53.051,6527
329486.789,241717.897,53.034,6527
329485.14400000003,241716.60700000002,53.022,6527
329483.499,241715.31900000002,53.022,6527
329481.887,241714.055,53.042,6527
329480.264,241712.784,52.993,6527
329478.653,241711.52300000002,53.035000000000004,6527
329477.001,241710.229,52.96,6527
329475.363,241708.942,53.006,6527
329522.139,241754.073,53.211,6527
329520.415,241752.727,52.703,6527
329518.803,241751.46600000001,52.673,6527
329517.224,241750.222,52.647,6527
329515.586,241748.941,52.703,6527
329513.947,241747.657,52.706,6527
329512.276,241746.347,52.706,6527
329510.697,241745.109,52.732,6527
329509.026,241743.799,52.742000000000004,6527
329507.354,241742.489,52.719,6527
329505.716,241741.20500000002,52.769,6527
329504.11100000003,241739.94700000001,52.818,6527
329502.44,241738.638,52.847,6527
329500.828,241737.373,52.831,6527
329499.166,241736.066,52.893,6527
329497.577,241734.828,52.883,6527
329495.938,241733.544,52.916000000000004,6527
329494.359,241732.306,52.972,6527
329492.721,241731.018,52.975,6527
329491.076,241729.731,52.959,6527
329489.464,241728.467,52.979,6527
329487.859,241727.206,53.005,6527
329486.214,241725.919,53.034,6527
329484.606,241724.658,53.08,6527
329482.931,241723.348,53.093,6527
329481.26,241722.038,53.136,6527
329479.674,241720.79,53.051,6527
329478.069,241719.535,53.159,6527
329476.39,241718.215,53.097,6527
329474.745,241716.928,53.093,6527
329473.061,241715.612,53.041000000000004,6527
329471.38300000003,241714.296,53.018,6527
329469.708,241712.98200000002,52.998,6527
329518.84500000003,241753.56,53.487,6527
329517.038,241752.149,52.752,6527
329515.386,241750.855,52.641,6527
329513.748,241749.57200000001,52.657000000000004,6527
329512.076,241748.265,52.696,6527
329510.52400000003,241747.049,52.673,6527
329508.8,241745.69700000001,52.746,6527
329507.214,241744.45500000002,52.71,6527
329505.55,241743.14500000002,52.729,6527
329503.971,241741.91,52.742000000000004,6527
329502.395,241740.67500000002,52.818,6527
329500.721,241739.362,52.815,6527
329499.145,241738.128,52.844,6527
329497.444,241736.795,52.893,6527
329495.953,241735.628,52.913000000000004,6527
329494.216,241734.266,52.854,6527
329492.61100000003,241733.005,52.903,6527
329490.972,241731.72100000002,52.956,6527
329489.271,241730.384,52.946,6527
329487.742,241729.188,52.906,6527
329486.054,241727.862,53.008,6527
329484.465,241726.625,53.031,6527
329482.745,241725.269,53.084,6527
329481.126,241724.005,53.064,6527
329479.455,241722.691,53.074,6527
329477.76,241721.362,53.146,6527
329476.197,241720.143,53.133,6527
329474.51300000004,241718.823,53.038000000000004,6527
329472.99,241717.63,53.057,6527
329471.256,241716.268,53.015,6527
329469.982,241716.839,53.012,6527
329468.37,241715.574,53.039,6527
329469.604,241714.973,52.980000000000004,6527
329514.139,241751.45200000002,52.9,6527
329512.507,241750.172,52.667,6527
329510.925,241748.938,52.69,6527
329509.287,241747.65,52.696,6527
329507.681,241746.389,52.732,6527
329506.036,241745.102,52.703,6527
329504.368,241743.79200000002,52.719,6527
329502.819,241742.58000000002,52.752,6527
329501.148,241741.27300000002,52.792,6527
329499.568,241740.03100000002,52.785000000000004,6527
329497.897,241738.72100000002,52.795,6527
329496.232,241737.415,52.867000000000004,6527
329494.653,241736.18,52.9,6527
329493.00800000003,241734.89,52.887,6527
329491.37,241733.609,52.949,6527
329489.67600000004,241732.276,52.988,6527
329488.047,241731.002,52.88,6527
329486.393,241729.701,53.021,6527
329484.715,241728.388,52.985,6527
329483.11,241727.13,53.07,6527
329481.49,241725.86000000002,53.008,6527
329479.914,241724.625,53.09,6527
329478.214,241723.29200000002,53.126,6527
329476.602,241722.028,53.113,6527
329474.957,241720.74,53.136,6527
329473.318,241719.45,53.146,6527
329471.634,241718.133,53.087,6527
329476.47500000003,241728.71600000001,52.979,6527
329474.868,241727.458,53.057,6527
329473.25,241726.19,53.028,6527
329471.661,241724.946,53.018,6527
329470.049,241723.681,53.021,6527
329468.375,241722.364,52.998,6527
329466.792,241721.12600000002,53.021,6527
329507.219,241749.49300000002,52.746,6527
329505.482,241748.131,52.683,6527
329503.897,241746.889,52.664,6527
329502.239,241745.586,52.759,6527
329500.627,241744.325,52.785000000000004,6527
329499.014,241743.06,52.759,6527
329497.286,241741.701,52.755,6527
329495.737,241740.489,52.808,6527
329493.977,241739.108,52.821,6527
329492.365,241737.844,52.824,6527
329490.753,241736.582,52.847,6527
329489.148,241735.321,52.897,6527
329487.559,241734.08000000002,52.857,6527
329485.832,241732.72100000002,52.88,6527
329484.25,241731.48200000002,52.929,6527
329482.582,241730.17500000002,52.939,6527
329480.963,241728.908,52.926,6527
329479.265,241727.576,52.975,6527
329477.63300000003,241726.295,53.074,6527
329476.047,241725.047,53.024,6527
329474.343,241723.717,53.07,6527
329472.791,241722.498,53.087,6527
329471.03,241721.117,53.09,6527
329469.501,241719.921,53.07,6527
329467.856,241718.627,53.021,6527
329502.791,241749.344,53.342,6527
329501.054,241747.98500000002,52.695,6527
329499.405,241746.69400000002,52.649,6527
329497.74,241745.388,52.695,6527
329496.102,241744.104,52.722,6527
329494.51300000004,241742.859,52.705,6527
329492.914,241741.604,52.794000000000004,6527
329491.246,241740.294,52.807,6527
329489.602,241739.00400000002,52.784,6527
329487.98,241737.737,52.728,6527
329486.351,241736.456,52.83,6527
329484.647,241735.12600000002,52.873,6527
329483.042,241733.862,52.892,6527
329481.364,241732.552,52.899,6527
329479.75800000003,241731.291,52.948,6527
329478.113,241730.0,52.958,6527
329490.31200000003,241745.832,53.414,6527
329488.631,241744.522,52.791000000000004,6527
329487.006,241743.25100000002,52.709,6527
329485.427,241742.01,52.702,6527
329483.723,241740.678,52.735,6527
329482.15,241739.44,52.768,6527
329480.505,241738.152,52.777,6527
329478.866,241736.865,52.817,6527
329477.255,241735.604,52.853,6527
329475.61,241734.313,52.807,6527
329473.971,241733.029,52.859,6527
329472.327,241731.739,52.853,6527
329470.715,241730.478,52.896,6527
329469.07,241729.188,52.873,6527
329467.39900000003,241727.875,52.882,6527
329465.727,241726.565,52.928000000000004,6527
329497.30700000003,241747.851,53.279,6527
329495.663,241746.567,52.725,6527
329493.991,241745.25400000002,52.709,6527
329492.32,241743.94700000001,52.728,6527
329490.764,241742.728,52.745000000000005,6527
329489.05700000003,241741.389,52.659,6527
329487.484,241740.155,52.725,6527
329485.82,241738.851,52.791000000000004,6527
329484.168,241737.56100000002,52.761,6527
329482.586,241736.31900000002,52.751,6527
329480.924,241735.01200000002,52.866,6527
329479.408,241733.823,52.886,6527
329477.707,241732.49,52.922000000000004,6527
329476.124,241731.248,52.941,6527
329474.48,241729.961,52.958,6527
329472.86100000003,241728.69400000002,52.925000000000004,6527
329471.229,241727.41400000002,53.001,6527
329469.552,241726.097,52.991,6527
329467.98600000003,241724.86800000002,52.873,6527
329466.226,241723.49300000002,52.932,6527
329484.815,241744.639,53.525,6527
329483.123,241743.31900000002,52.784,6527
329481.412,241741.98,52.718,6527
329479.8,241740.71600000001,52.735,6527
329478.221,241739.47400000002,52.735,6527
329476.517,241738.138,52.731,6527
329474.938,241736.897,52.738,6527
329473.178,241735.518,52.794000000000004,6527
329471.606,241734.283,52.866,6527
329469.895,241732.94700000001,52.836,6527
329468.283,241731.676,52.814,6527
329466.697,241730.434,52.804,6527
329465.02,241729.122,52.814,6527
329464.819,241734.613,52.665,6527
329463.29600000003,241733.42,52.711,6527
329473.12,241741.123,52.914,6527
329478.816,241742.641,52.882,6527
329477.125,241741.318,52.715,6527
329475.514,241740.054,52.741,6527
329473.908,241738.796,52.817,6527
329472.293,241737.528,52.781,6527
329470.619,241736.215,52.771,6527
329468.974,241734.924,52.771,6527
329467.362,241733.66,52.774,6527
329465.717,241732.369,52.771,6527
329464.045,241731.056,52.782000000000004,6527
329464.291,241739.25,53.120000000000005,6527
329462.689,241737.998,52.719,6527
329468.374,241739.759,52.937,6527
329466.77400000003,241738.50100000002,52.730000000000004,6527
329465.152,241737.236,52.711,6527
329463.54,241735.969,52.711,6527
329471.462,241739.824,52.775,6527
329469.818,241738.533,52.743,6527
329468.116,241737.19700000001,52.727000000000004,6527
329466.553,241735.978,52.717,6527
329546.89400000003,241716.67,52.781,6527
329541.72500000003,241717.326,52.683,6527
329542.556,241719.192,52.601,6527
329543.44,241721.173,52.568,6527
329544.281,241723.062,52.656,6527
329545.152,241725.016,52.735,6527
329545.228,241718.685,52.732,6527
329546.139,241720.715,52.561,6527
329538.863,241715.553,53.072,6527
329539.674,241717.38,52.682,6527
329540.565,241719.38700000002,52.617000000000004,6527
329541.393,241721.24300000002,52.725,6527
329542.276,241723.214,52.653,6527
329543.08400000003,241725.034,52.738,6527
329543.922,241726.923,52.824,6527
329534.03500000003,241714.94,52.806000000000004,6527
329534.846,241716.764,52.669000000000004,6527
329535.74,241718.757,52.77,6527
329536.591,241720.666,52.714,6527
329537.412,241722.509,52.742000000000004,6527
329538.309,241724.529,52.752,6527
329539.114,241726.34,52.771,6527
329540.011,241728.356,52.791000000000004,6527
329540.802,241730.134,52.814,6527
329541.673,241732.089,52.883,6527
329542.502,241733.95500000002,52.801,6527
329536.625,241715.56900000002,52.800000000000004,6527
329537.45900000003,241717.435,52.714,6527
329538.303,241719.34,52.65,6527
329539.154,241721.249,52.643,6527
329540.015,241723.174,52.729,6527
329540.859,241725.089,52.725,6527
329541.733,241727.037,52.748,6527
329542.597,241728.979,52.722,6527
329543.424,241730.842,52.889,6527
329542.19,241737.37,52.912,6527
329532.061,241714.613,52.757,6527
329532.885,241716.476,52.655,6527
329533.76300000004,241718.44,52.783,6527
329534.597,241720.309,52.718,6527
329535.438,241722.199,52.774,6527
329536.255,241724.038,52.758,6527
329537.09,241725.921,52.811,6527
329537.96,241727.869,52.801,6527
329530.337,241715.043,52.724000000000004,6527
329531.201,241716.994,52.741,6527
329531.996,241718.768,52.76,6527
329532.913,241720.828,52.787,6527
329533.68700000003,241722.56900000002,52.826,6527
329534.565,241724.547,52.798,6527
329535.39900000003,241726.416,52.722,6527
329536.246,241728.312,52.866,6527
329537.124,241730.28900000002,52.824,6527
329537.945,241732.136,52.863,6527
329538.829,241734.119,52.873,6527
329539.642,241735.943,53.021,6527
329540.51900000003,241737.91400000002,52.948,6527
329541.363,241739.81900000002,52.902,6527
329538.80100000004,241729.75100000002,52.85,6527
329539.652,241731.663,52.86,6527
329540.48600000003,241733.536,52.843,6527
329541.33,241735.445,52.801,6527
329526.098,241713.415,52.724000000000004,6527
329526.935,241715.295,52.724000000000004,6527
329527.783,241717.21,52.741,6527
329528.627,241719.09900000002,52.823,6527
329529.474,241721.00400000002,52.757,6527
329530.325,241722.913,52.737,6527
329531.223,241724.93600000002,52.793,6527
329532.023,241726.727,52.889,6527
329532.871,241728.636,52.866,6527
329533.728,241730.554,52.935,6527
329534.592,241732.502,52.942,6527
329535.46,241734.453,52.962,6527
329536.311,241736.362,52.945,6527
329537.188,241738.33000000002,52.85,6527
329538.00800000003,241740.179,52.906,6527
329538.839,241742.055,52.906,6527
329539.666,241743.912,52.755,6527
329523.27,241713.634,52.685,6527
329524.117,241715.52300000002,52.76,6527
329524.981,241717.475,52.78,6527
329525.816,241719.347,52.721000000000004,6527
329526.63,241721.171,52.833,6527
329527.54,241723.217,52.78,6527
329528.351,241725.037,52.879,6527
329529.262,241727.087,52.833,6527
329530.083,241728.927,52.81,6527
329530.967,241730.91400000002,52.876,6527
329531.808,241732.80000000002,52.925000000000004,6527
329532.629,241734.643,52.939,6527
329533.48600000003,241736.578,52.843,6527
329534.293,241738.392,52.902,6527
329535.2,241740.431,52.814,6527
329536.00800000003,241742.245,52.857,6527
329536.885,241744.212,52.758,6527
329537.752,241746.16400000002,52.791000000000004,6527
329538.583,241748.04,52.784,6527
329522.054,241713.431,52.698,6527
329522.905,241715.35,52.737,6527
329523.76900000003,241717.301,52.76,6527
329524.643,241719.249,52.76,6527
329525.494,241721.171,52.803000000000004,6527
329526.365,241723.119,52.819,6527
329527.206,241725.00100000002,52.839,6527
329528.04,241726.88,52.856,6527
329528.858,241728.727,52.879,6527
329529.748,241730.714,52.925000000000004,6527
329530.602,241732.62600000002,52.922000000000004,6527
329531.453,241734.548,52.985,6527
329532.281,241736.407,52.866,6527
329533.151,241738.355,52.876,6527
329533.998,241740.264,52.84,6527
329534.829,241742.133,52.801,6527
329535.686,241744.048,52.834,6527
329536.514,241745.908,52.706,6527
329537.378,241747.84900000002,52.676,6527
329538.22500000003,241749.748,52.584,6527
329536.017,241757.034,52.371,6527
329519.139,241711.55000000002,52.816,6527
329520.017,241713.525,52.77,6527
329520.848,241715.404,52.747,6527
329521.662,241717.22100000002,52.803000000000004,6527
329522.529,241719.169,52.797000000000004,6527
329523.354,241721.018,52.833,6527
329524.264,241723.06100000002,52.767,6527
329525.059,241724.852,52.895,6527
329525.942,241726.83000000002,52.852000000000004,6527
329526.817,241728.791,52.947,6527
329527.647,241730.673,52.978,6527
329528.518,241732.621,53.001,6527
329529.339,241734.468,53.037,6527
329530.216,241736.435,52.909,6527
329531.036,241738.288,52.985,6527
329531.887,241740.187,52.899,6527
329532.735,241742.089,52.837,6527
329533.53500000003,241743.886,52.761,6527
329534.4,241745.828,52.706,6527
329535.224,241747.678,52.788000000000004,6527
329536.078,241749.603,52.624,6527
329536.902,241751.449,52.67,6527
329514.605,241712.307,52.734,6527
329515.489,241714.291,52.711,6527
329516.316,241716.144,52.757,6527
329517.147,241718.027,52.78,6527
329518.031,241720.008,52.764,6527
329518.84500000003,241721.828,52.862,6527
329519.743,241723.845,52.826,6527
329520.537,241725.62900000002,52.905,6527
329521.391,241727.544,52.915,6527
329522.229,241729.43300000002,52.993,6527
329523.069,241731.309,52.987,6527
329523.947,241733.29,52.97,6527
329524.721,241735.025,52.941,6527
329525.63800000004,241737.078,52.945,6527
329526.439,241738.885,52.939,6527
329527.303,241740.829,52.919000000000004,6527
329528.181,241742.80000000002,52.834,6527
329528.967,241744.562,52.765,6527
329529.851,241746.546,52.775,6527
329530.666,241748.37600000002,52.702,6527
329531.563,241750.392,52.696,6527
329532.39400000003,241752.26200000002,52.647,6527
329533.275,241754.233,52.584,6527
329534.139,241756.171,52.515,6527
329515.696,241711.37900000002,52.701,6527
329516.57,241713.334,52.744,6527
329517.401,241715.21,52.711,6527
329518.255,241717.128,52.731,6527
329519.132,241719.09600000002,52.879,6527
329519.976,241721.00400000002,52.829,6527
329520.83,241722.91,52.777,6527
329521.668,241724.796,52.836,6527
329522.522,241726.714,52.856,6527
329523.393,241728.668,52.892,6527
329524.22000000003,241730.518,52.957,6527
329525.071,241732.45,53.075,6527
329525.87200000003,241734.241,52.977000000000004,6527
329526.723,241736.153,52.965,6527
329527.57,241738.051,52.866,6527
329528.42100000003,241739.967,52.889,6527
329529.262,241741.84900000002,52.922000000000004,6527
329530.106,241743.748,52.814,6527
329530.939,241745.621,52.784,6527
329531.783,241747.526,52.752,6527
329532.667,241749.503,52.719,6527
329533.482,241751.334,52.647,6527
329534.31200000003,241753.206,52.604,6527
329535.173,241755.138,52.499,6527
329519.59500000003,241727.30800000002,52.898,6527
329520.449,241729.226,52.928000000000004,6527
329521.286,241731.119,53.013,6527
329522.157,241733.067,53.013,6527
329523.018,241735.005,52.947,6527
329523.849,241736.874,52.895,6527
329524.669,241738.714,52.88,6527
329525.553,241740.698,52.896,6527
329526.404,241742.60700000002,52.857,6527
329527.272,241744.551,52.853,6527
329528.12200000003,241746.46300000002,52.837,6527
329528.979,241748.39500000002,52.729,6527
329529.813,241750.271,52.719,6527
329530.64400000003,241752.14,52.653,6527
329531.478,241754.013,52.620000000000005,6527
329532.329,241755.918,52.591,6527
329507.93700000003,241709.483,52.828,6527
329508.764,241711.329,52.832,6527
329509.648,241713.316,52.838,6527
329510.456,241715.133,52.887,6527
329511.353,241717.153,52.878,6527
329512.147,241718.928,52.887,6527
329513.025,241720.912,52.864000000000004,6527
329513.865,241722.797,52.92,6527
329514.716,241724.709,52.914,6527
329515.607,241726.7,52.953,6527
329516.395,241728.478,52.983000000000004,6527
329517.279,241730.465,52.992000000000004,6527
329518.099,241732.305,52.973,6527
329518.983,241734.285,52.969,6527
329519.844,241736.227,52.904,6527
329520.668,241738.07,52.923,6527
329521.579,241740.113,52.852000000000004,6527
329522.347,241741.848,52.823,6527
329523.231,241743.829,52.793,6527
329524.031,241745.636,52.793,6527
329524.915,241747.613,52.774,6527
329525.762,241749.522,52.744,6527
329526.593,241751.385,52.639,6527
329527.477,241753.369,52.675000000000004,6527
329512.011,241710.271,52.803000000000004,6527
329512.848,241712.16,52.842,6527
329513.712,241714.098,52.767,6527
329514.54600000003,241715.97400000002,52.744,6527
329515.374,241717.82700000002,52.797000000000004,6527
329516.211,241719.709,52.793,6527
329517.065,241721.628,52.839,6527
329517.916,241723.543,52.826,6527
329518.757,241725.429,52.872,6527
329505.31200000003,241710.331,52.782000000000004,6527
329506.173,241712.253,52.815,6527
329507.011,241714.132,52.822,6527
329507.865,241716.063,52.92,6527
329508.729,241718.005,52.878,6527
329509.576,241719.88700000002,52.891,6527
329510.407,241721.77300000002,52.927,6527
329511.261,241723.688,52.93,6527
329512.145,241725.67500000002,52.96,6527
329512.983,241727.55800000002,52.979,6527
329513.857,241729.51200000002,53.025,6527
329514.701,241731.418,52.966,6527
329515.542,241733.30000000002,52.976,6527
329516.373,241735.176,52.963,6527
329517.213,241737.049,52.93,6527
329518.077,241738.987,52.864000000000004,6527
329518.922,241740.896,52.825,6527
329519.776,241742.80800000002,52.818,6527
329520.627,241744.71600000001,52.793,6527
329521.491,241746.658,52.767,6527
329522.338,241748.56,52.672000000000004,6527
329523.202,241750.508,52.685,6527
329524.032,241752.377,52.616,6527
329524.866,241754.24300000002,52.557,6527
329502.39900000003,241710.57,52.868,6527
329503.26300000004,241712.518,52.828,6527
329504.134,241714.479,52.884,6527
329504.962,241716.32200000001,52.891,6527
329505.79600000003,241718.198,52.851,6527
329506.63300000003,241720.087,52.92,6527
329507.494,241722.009,52.96,6527
329508.358,241723.964,52.989000000000004,6527
329509.199,241725.843,52.996,6527
329510.07,241727.797,53.028,6527
329510.934,241729.745,53.015,6527
329511.781,241731.647,52.937,6527
329512.612,241733.52000000002,52.894,6527
329513.483,241735.47100000002,52.887,6527
329514.317,241737.344,52.868,6527
329515.181,241739.285,52.812,6527
329516.002,241741.125,52.776,6527
329516.833,241743.008,52.812,6527
329517.654,241744.834,52.714,6527
329518.505,241746.75,52.737,6527
329519.352,241748.662,52.718,6527
329520.18200000003,241750.528,52.636,6527
329521.036,241752.44,52.629,6527
329504.038,241710.239,52.832,6527
329504.922,241712.223,52.825,6527
329505.75,241714.07,52.838,6527
329506.601,241715.995,52.907000000000004,6527
329507.485,241717.969,52.828,6527
329508.31200000003,241719.825,52.904,6527
329509.223,241721.875,52.897,6527
329510.037,241723.698,52.983000000000004,6527
329510.895,241725.636,52.897,6527
329511.722,241727.489,52.963,6527
329512.566,241729.375,53.025,6527
329513.444,241731.353,52.969,6527
329514.264,241733.192,52.937,6527
329515.142,241735.173,52.917,6527
329515.963,241737.013,52.9,6527
329516.86,241739.017,52.805,6527
329517.69800000003,241740.902,52.864000000000004,6527
329518.512,241742.742,52.823,6527
329519.409,241744.753,52.777,6527
329520.216,241746.556,52.757,6527
329521.106,241748.567,52.695,6527
329521.89400000003,241750.33800000002,52.705,6527
329522.766,241752.282,52.685,6527
329523.587,241754.132,52.764,6527
329498.983,241708.87600000002,52.773,6527
329499.844,241710.807,52.871,6527
329500.675,241712.69,52.868,6527
329501.579,241714.71300000002,52.881,6527
329502.373,241716.494,52.927,6527
329503.264,241718.508,52.868,6527
329504.118,241720.40600000002,53.025,6527
329505.836,241724.279,53.055,6527
329506.674,241726.155,53.028,6527
329507.548,241728.116,53.124,6527
329508.359,241729.94700000001,52.999,6527
329509.223,241731.89500000002,52.989000000000004,6527
329510.03,241733.70200000002,52.963,6527
329510.864,241735.574,52.897,6527
329511.729,241737.51200000002,52.841,6527
329512.549,241739.352,52.825,6527
329513.427,241741.33000000002,52.756,6527
329514.221,241743.108,52.786,6527
329515.098,241745.082,52.746,6527
329515.919,241746.922,52.714,6527
329501.049,241719.17,52.956,6527
329501.88300000003,241721.033,53.088,6527
329502.741,241722.967,52.976,6527
329503.581,241724.86000000002,53.061,6527
329504.422,241726.746,53.088,6527
329505.24,241728.585,53.058,6527
329506.094,241730.494,53.025,6527
329506.945,241732.399,52.966,6527
329507.789,241734.305,52.897,6527
329508.61,241736.14500000002,52.858000000000004,6527
329509.464,241738.063,52.897,6527
329510.308,241739.962,52.805,6527
329511.159,241741.874,52.763,6527
329512.026,241743.812,52.72,6527
329512.864,241745.698,52.766,6527
329513.678,241747.535,52.730000000000004,6527
329514.542,241749.473,52.655,6527
329515.413,241751.427,52.701,6527
329516.783,241748.863,52.672000000000004,6527
329517.661,241750.844,52.652,6527
329518.44800000003,241752.61800000002,52.646,6527
329494.484,241710.125,52.802,6527
329495.375,241712.112,52.822,6527
329496.169,241713.9,52.9,6527
329497.08,241715.956,52.9,6527
329497.874,241717.74,52.933,6527
329498.75800000003,241719.72400000002,52.933,6527
329499.585,241721.57700000002,52.996,6527
329500.406,241723.424,52.976,6527
329501.304,241725.44,52.96,6527
329502.105,241727.234,53.101,6527
329502.982,241729.20200000002,52.986000000000004,6527
329503.786,241731.019,53.012,6527
329504.667,241732.99,52.927,6527
329505.498,241734.869,52.92,6527
329506.362,241736.81,52.878,6527
329507.216,241738.722,52.848,6527
329508.004,241740.49,52.802,6527
329508.914,241742.536,52.759,6527
329509.72500000003,241744.37,52.677,6527
329510.623,241746.38700000002,52.674,6527
329511.463,241748.26200000002,52.664,6527
329512.314,241750.174,52.658,6527
329496.762,241709.535,52.832,6527
329497.636,241711.496,52.891,6527
329498.487,241713.41400000002,52.914,6527
329499.341,241715.33000000002,52.891,6527
329500.19800000003,241717.25100000002,52.94,6527
329504.064,241737.32200000001,52.878,6527
329504.928,241739.26,52.792,6527
329505.782,241741.172,52.779,6527
329506.593,241743.002,52.687,6527
329507.454,241744.924,52.723,6527
329508.28500000003,241746.80000000002,52.704,6527
329509.132,241748.70200000002,52.625,6527
329510.003,241750.66,52.704,6527
329493.693,241719.027,52.979,6527
329494.597,241721.053,53.028,6527
329495.418,241722.91,53.088,6527
329496.259,241724.78900000002,53.074,6527
329497.143,241726.77000000002,53.035000000000004,6527
329497.961,241728.616,53.051,6527
329498.851,241730.623,52.94,6527
329499.679,241732.473,52.979,6527
329500.589,241734.51200000002,52.891,6527
329501.39,241736.316,52.845,6527
329502.228,241738.195,52.835,6527
329503.092,241740.15,52.881,6527
329503.913,241741.987,52.805,6527
329504.803,241743.99,52.707,6527
329505.591,241745.761,52.687,6527
329506.47500000003,241747.739,52.648,6527
329492.179,241710.597,52.848,6527
329493.017,241712.486,52.897,6527
329493.838,241714.339,52.93,6527
329494.702,241716.278,52.851,6527
329495.549,241718.173,52.94,6527
329496.4,241720.098,53.009,6527
329497.254,241722.013,52.986000000000004,6527
329498.092,241723.902,53.032000000000004,6527
329498.953,241725.821,53.065,6527
329499.83,241727.795,52.973,6527
329500.651,241729.64500000002,53.015,6527
329501.495,241731.547,52.914,6527
329502.336,241733.429,52.93,6527
329503.22000000003,241735.407,52.878,6527
329484.86,241709.916,52.946,6527
329485.724,241711.864,52.907000000000004,6527
329486.615,241713.861,52.966,6527
329487.429,241715.681,53.032000000000004,6527
329488.32,241717.698,52.983000000000004,6527
329489.101,241719.449,53.048,6527
329489.978,241721.42,52.927,6527
329490.826,241723.32200000001,53.074,6527
329491.683,241725.261,52.969,6527
329489.109,241714.438,52.93,6527
329489.983,241716.396,52.96,6527
329490.841,241718.317,53.022,6527
329491.718,241720.298,52.979,6527
329492.579,241722.22,53.009,6527
329493.449,241724.187,53.14,6527
329494.28,241726.057,53.038000000000004,6527
329495.101,241727.893,52.979,6527
329495.942,241729.782,53.042,6527
329496.806,241731.72100000002,52.94,6527
329497.67,241733.669,52.927,6527
329498.504,241735.538,52.861000000000004,6527
329499.355,241737.453,52.861000000000004,6527
329500.219,241739.401,52.851,6527
329501.093,241741.34900000002,52.838,6527
329501.918,241743.212,52.74,6527
329502.768,241745.121,52.687,6527
329487.444,241710.70200000002,52.897,6527
329488.272,241712.555,52.93,6527
329489.48600000003,241709.57200000001,52.897,6527
329490.32300000003,241711.458,52.933,6527
329491.164,241713.34,52.923,6527
329491.995,241715.219,52.914,6527
329492.879,241717.203,52.907000000000004,6527
329487.091,241723.95,53.038000000000004,6527
329487.912,241725.797,53.058,6527
329488.789,241727.768,52.95,6527
329489.577,241729.53900000002,52.881,6527
329490.44800000003,241731.49,52.884,6527
329491.268,241733.33000000002,52.855000000000004,6527
329492.119,241735.255,52.917,6527
329492.987,241737.196,52.855000000000004,6527
329493.754,241738.92500000002,52.769,6527
329494.668,241740.97400000002,52.727000000000004,6527
329495.476,241742.785,52.733000000000004,6527
329496.353,241744.766,52.694,6527
329497.207,241746.678,52.677,6527
329483.295,241709.99,52.93,6527
329484.136,241711.87600000002,52.943,6527
329484.957,241713.722,52.94,6527
329485.828,241715.68300000002,52.979,6527
329486.718,241717.674,53.019,6527
329487.539,241719.52000000002,53.005,6527
329488.41000000003,241721.475,53.042,6527
329489.27400000003,241723.426,53.025,6527
329490.148,241725.374,53.009,6527
329490.95900000003,241727.208,52.904,6527
329491.833,241729.169,52.966,6527
329492.65,241731.01200000002,52.946,6527
329493.515,241732.95,52.871,6527
329494.349,241734.826,52.841,6527
329495.186,241736.70500000002,52.812,6527
329496.02,241738.581,52.792,6527
329496.841,241740.424,52.779,6527
329497.739,241742.438,52.746,6527
329498.536,241744.242,52.697,6527
329499.377,241746.124,52.723,6527
329492.544,241727.179,52.986000000000004,6527
329493.36100000003,241729.026,52.992000000000004,6527
329494.272,241731.075,52.966,6527
329495.08,241732.882,52.927,6527
329495.964,241734.866,52.914,6527
329496.78500000003,241736.709,52.914,6527
329497.629,241738.625,52.887,6527
329498.506,241740.589,52.743,6527
329499.314,241742.399,52.759,6527
329500.191,241744.377,52.717,6527
329500.965,241746.122,52.736000000000004,6527
329501.843,241748.093,52.664,6527
329488.389,241740.172,52.769,6527
329489.299,241742.215,52.694,6527
329490.124,241744.068,52.753,6527
329477.469,241710.554,52.989000000000004,6527
329478.287,241712.411,53.012,6527
329479.178,241714.401,53.042,6527
329480.005,241716.257,53.097,6527
329480.869,241718.20500000002,53.065,6527
329481.71,241720.08800000002,53.058,6527
329482.548,241721.977,53.104,6527
329483.382,241723.84900000002,53.045,6527
329484.203,241725.699,53.048,6527
329485.067,241727.641,52.969,6527
329485.904,241729.52000000002,52.95,6527
329486.738,241731.392,52.897,6527
329487.589,241733.31100000002,52.897,6527
329488.423,241735.184,52.851,6527
329489.288,241737.135,52.841,6527
329490.152,241739.073,52.759,6527
329490.98600000003,241740.949,52.72,6527
329491.813,241742.799,52.743,6527
329492.677,241744.74,52.697,6527
329481.125,241710.537,52.881,6527
329481.92,241712.331,52.976,6527
329482.817,241714.345,52.92,6527
329484.549,241718.231,53.022,6527
329485.369,241720.084,53.048,6527
329486.24,241722.045,53.124,6527
329483.038,241736.369,52.766,6527
329483.882,241738.274,52.691,6527
329484.743,241740.196,52.72,6527
329485.593,241742.105,52.687,6527
329486.471,241744.085,52.648,6527
329473.32,241709.54,52.873,6527
329474.164,241711.432,52.94,6527
329474.991,241713.28900000002,53.009,6527
329475.862,241715.253,53.071,6527
329476.703,241717.139,53.107,6527
329477.574,241719.093,53.114000000000004,6527
329478.428,241721.01200000002,53.124,6527
329479.264,241722.888,53.065,6527
329480.098,241724.764,53.028,6527
329480.962,241726.708,52.976,6527
329481.827,241728.653,52.914,6527
329482.681,241730.562,52.878,6527
329483.545,241732.513,52.864000000000004,6527
329484.396,241734.418,52.799,6527
329485.25,241736.34,52.812,6527
329486.061,241738.174,52.733000000000004,6527
329486.915,241740.089,52.72,6527
329487.752,241741.968,52.733000000000004,6527
329488.616,241743.90600000002,52.651,6527
329474.853,241709.738,52.996,6527
329475.718,241711.693,53.002,6527
329476.531,241713.52000000002,53.088,6527
329477.401,241715.468,53.045,6527
329478.20900000003,241717.288,53.11,6527
329479.106,241719.31100000002,53.104,6527
329479.931,241721.16400000002,53.133,6527
329480.765,241723.04,53.101,6527
329481.629,241724.98200000002,53.015,6527
329482.423,241726.766,53.068,6527
329483.33400000003,241728.802,52.943,6527
329484.155,241730.655,52.96,6527
329485.01900000003,241732.6,52.93,6527
329485.84,241734.437,52.861000000000004,6527
329486.677,241736.316,52.841,6527
329487.588,241738.365,52.805,6527
329468.693,241714.991,52.929,6527
329469.583,241716.995,53.032000000000004,6527
329470.404,241718.848,53.071,6527
329471.288,241720.82200000001,52.983000000000004,6527
329472.139,241722.747,53.015,6527
329472.966,241724.6,53.065,6527
329473.856,241726.61000000002,52.953,6527
329474.681,241728.45,52.910000000000004,6527
329475.548,241730.404,52.917,6527
329476.366,241732.248,52.881,6527
329477.233,241734.196,52.861000000000004,6527
329478.097,241736.13700000002,52.799,6527
329478.918,241737.98,52.746,6527
329479.789,241739.928,52.723,6527
329480.583,241741.712,52.766,6527
329469.614,241713.07200000001,52.998,6527
329470.468,241714.988,52.973,6527
329471.339,241716.949,53.005,6527
329472.196,241718.88,53.117000000000004,6527
329473.036,241720.766,53.11,6527
329473.867,241722.642,53.061,6527
329474.728,241724.557,53.045,6527
329475.572,241726.472,53.019,6527
329476.42600000004,241728.378,52.927,6527
329477.264,241730.26,52.937,6527
329478.128,241732.208,52.9,6527
329478.97500000003,241734.12,52.858000000000004,6527
329479.839,241736.062,52.792,6527
329480.68,241737.94400000002,52.802,6527
329481.531,241739.853,52.759,6527
329482.362,241741.73200000002,52.723,6527
329471.08400000003,241709.5,52.909,6527
329471.988,241711.527,52.923,6527
329472.839,241713.448,52.95,6527
329473.68700000003,241715.347,53.045,6527
329474.536,241717.269,53.058,6527
329475.364,241719.115,53.038000000000004,6527
329476.268,241721.149,53.13,6527
329477.086,241722.992,53.088,6527
329477.983,241725.008,53.035000000000004,6527
329478.837,241726.927,53.055,6527
329479.668,241728.80000000002,52.969,6527
329480.522,241730.712,52.956,6527
329481.32,241732.515,52.891,6527
329482.204,241734.49300000002,52.818,6527
329465.786,241727.062,52.863,6527
329466.64400000003,241728.983,52.88,6527
329467.507,241730.928,52.831,6527
329468.341,241732.804,52.778,6527
329469.165,241734.657,52.804,6527
329470.043,241736.641,52.781,6527
329470.897,241738.55000000002,52.719,6527
329471.761,241740.494,52.663000000000004,6527
329467.207,241723.519,52.962,6527
329467.995,241725.297,52.939,6527
329468.848,241727.212,52.936,6527
329469.719,241729.16700000002,52.939,6527
329470.54,241731.007,52.870000000000005,6527
329471.404,241732.954,52.834,6527
329472.22500000003,241734.801,52.817,6527
329473.089,241736.746,52.781,6527
329473.92600000004,241738.628,52.788000000000004,6527
329474.804,241740.606,52.729,6527
329467.844,241717.49,53.08,6527
329468.688,241719.402,53.041000000000004,6527
329469.539,241721.317,53.011,6527
329470.39900000003,241723.236,53.014,6527
329471.23,241725.115,52.988,6527
329472.103,241727.073,53.011,6527
329472.934,241728.95200000002,52.975,6527
329473.788,241730.854,52.886,6527
329474.619,241732.74,52.896,6527
329475.44,241734.58000000002,52.847,6527
329476.304,241736.524,52.801,6527
329477.145,241738.404,52.762,6527
329477.962,241740.247,52.749,6527
329478.83,241742.20500000002,52.772,6527
329463.78500000003,241735.038,52.706,6527
329464.612,241736.891,52.742000000000004,6527
329464.523,241730.564,52.781,6527
329465.36,241732.45,52.801,6527
329466.194,241734.329,52.749,6527
329467.064,241736.28,52.762,6527
329467.92100000003,241738.218,52.65,6527
329465.038,241728.323,52.801,6527
329465.833,241730.117,52.89,6527
329466.742,241732.153,52.758,6527
329467.583,241734.046,52.798,6527
329468.447,241735.994,52.768,6527
329469.305,241737.912,52.788000000000004,6527
329462.17600000004,241737.276,52.647,6527
329534.471,241757.01,52.716,6527
329536.50800000003,241757.445,52.384,6527
329526.431,241755.256,52.903,6527
329528.52,241755.71,52.752,6527
329532.503,241756.578,52.647,6527
329486.878,241744.53,52.797000000000004,6527
329492.983,241745.865,52.698,6527
329494.912,241746.287,52.721000000000004,6527
329496.946,241746.73200000002,52.688,6527
329509.065,241749.385,52.711,6527
329511.174,241749.84600000002,52.685,6527
329513.251,241750.30000000002,52.705,6527
329515.298,241750.748,52.751,6527
329517.434,241751.21600000001,52.682,6527
329519.37,241751.641,52.747,6527
329521.473,241752.09900000002,52.718,6527
329523.359,241752.51200000002,52.669000000000004,6527
329525.436,241752.97,52.728,6527
329527.506,241753.421,52.685,6527
329529.5,241753.856,52.695,6527
329531.567,241754.30800000002,52.61,6527
329533.522,241754.736,52.583,6527
329535.655,241755.201,52.491,6527
329463.967,241737.513,52.711,6527
329466.047,241737.97,52.724000000000004,6527
329468.052,241738.409,52.77,6527
329470.099,241738.86000000002,52.793,6527
329472.162,241739.30800000002,52.688,6527
329474.137,241739.74,52.708,6527
329476.191,241740.192,52.816,6527
329478.107,241740.608,52.711,6527
329480.19,241741.06900000002,52.783,6527
329482.191,241741.50400000002,52.741,6527
329484.192,241741.942,52.724000000000004,6527
329486.262,241742.397,52.711,6527
329488.27,241742.839,52.744,6527
329490.34,241743.29,52.692,6527
329492.31200000003,241743.722,52.728,6527
329494.431,241744.19,52.777,6527
329496.419,241744.625,52.708,6527
329498.42,241745.06,52.695,6527
329500.504,241745.518,52.728,6527
329502.544,241745.96600000001,52.741,6527
329504.654,241746.427,52.705,6527
329506.655,241746.865,52.724000000000004,6527
329508.765,241747.325,52.741,6527
329510.726,241747.75400000002,52.695,6527
329512.728,241748.193,52.718,6527
329514.735,241748.635,52.741,6527
329516.766,241749.079,52.718,6527
329518.876,241749.544,52.731,6527
329520.80100000004,241749.96300000002,52.711,6527
329522.947,241750.43300000002,52.711,6527
329524.941,241750.869,52.678000000000004,6527
329526.989,241751.317,52.744,6527
329529.059,241751.771,52.744,6527
329531.014,241752.19700000001,52.678000000000004,6527
329533.123,241752.661,52.695,6527
329535.072,241753.087,52.623,6527
329537.145,241753.538,52.593,6527
329509.844,241745.817,52.711,6527
329511.914,241746.272,52.724000000000004,6527
329513.961,241746.72,52.787,6527
329515.952,241747.155,52.731,6527
329518.147,241747.639,52.78,6527
329520.033,241748.051,52.764,6527
329522.22500000003,241748.532,52.82,6527
329524.105,241748.941,52.754,6527
329526.208,241749.402,52.705,6527
329528.215,241749.844,52.747,6527
329530.098,241750.257,52.737,6527
329532.241,241750.72400000002,52.695,6527
329534.094,241751.131,52.711,6527
329536.266,241751.604,52.646,6527
329463.58400000003,241734.16,52.79,6527
329465.7,241734.625,52.79,6527
329467.675,241735.057,52.829,6527
329469.683,241735.498,52.842,6527
329471.756,241735.95,52.803000000000004,6527
329473.731,241736.388,52.865,6527
329475.854,241736.84900000002,52.898,6527
329477.84500000003,241737.291,52.865,6527
329479.925,241737.742,52.816,6527
329481.887,241738.174,52.829,6527
329483.924,241738.619,52.79,6527
329486.011,241739.07700000002,52.823,6527
329488.042,241739.522,52.774,6527
329490.158,241739.986,52.836,6527
329492.166,241740.428,52.872,6527
329494.242,241740.882,52.882,6527
329496.168,241741.302,52.82,6527
329498.166,241741.74,52.797000000000004,6527
329500.239,241742.195,52.803000000000004,6527
329502.283,241742.646,52.842,6527
329463.14900000003,241735.587,52.718,6527
329465.232,241736.04200000002,52.728,6527
329467.132,241736.461,52.783,6527
329469.215,241736.919,52.806000000000004,6527
329471.216,241737.354,52.800000000000004,6527
329473.221,241737.796,52.833,6527
329475.33,241738.257,52.787,6527
329477.229,241738.673,52.823,6527
329479.415,241739.153,52.78,6527
329481.34,241739.576,52.774,6527
329483.496,241740.046,52.764,6527
329485.451,241740.475,52.734,6527
329487.42600000004,241740.907,52.78,6527
329489.53500000003,241741.36800000002,52.741,6527
329491.51,241741.803,52.81,6527
329493.659,241742.274,52.81,6527
329495.614,241742.7,52.754,6527
329497.691,241743.157,52.783,6527
329499.768,241743.612,52.77,6527
329501.73600000003,241744.041,52.78,6527
329503.839,241744.505,52.754,6527
329505.732,241744.918,52.76,6527
329507.887,241745.388,52.774,6527
329533.68200000003,241746.738,52.846000000000004,6527
329535.739,241747.18600000002,52.751,6527
329537.701,241747.615,52.724000000000004,6527
329504.354,241743.097,52.783,6527
329506.313,241743.526,52.747,6527
329508.465,241743.997,52.787,6527
329510.466,241744.439,52.78,6527
329512.507,241744.884,52.813,6527
329514.577,241745.33800000002,52.79,6527
329516.545,241745.77000000002,52.803000000000004,6527
329518.724,241746.247,52.774,6527
329520.577,241746.654,52.78,6527
329522.65,241747.108,52.793,6527
329524.579,241747.53100000002,52.813,6527
329526.574,241747.96600000001,52.78,6527
329528.651,241748.424,52.813,6527
329530.606,241748.853,52.79,6527
329532.679,241749.304,52.737,6527
329534.68,241749.742,52.754,6527
329536.704,241750.184,52.695,6527
329482.128,241731.885,52.941,6527
329484.175,241732.333,52.951,6527
329486.163,241732.768,52.852000000000004,6527
329488.174,241733.21,52.918,6527
329490.33,241733.684,52.967,6527
329492.324,241734.119,52.908,6527
329494.36100000003,241734.567,52.925000000000004,6527
329496.409,241735.019,52.987,6527
329498.37,241735.448,52.941,6527
329500.51900000003,241735.918,52.918,6527
329502.442,241736.34100000001,52.921,6527
329504.518,241736.795,52.911,6527
329506.457,241737.22100000002,52.980000000000004,6527
329508.481,241737.666,52.925000000000004,6527
329510.522,241738.111,52.895,6527
329512.523,241738.549,52.895,6527
329514.547,241738.994,52.842,6527
329464.62,241731.598,52.774,6527
329466.602,241732.033,52.836,6527
329468.718,241732.498,52.888,6527
329470.726,241732.93600000002,52.879,6527
329472.694,241733.36800000002,52.882,6527
329474.849,241733.842,52.905,6527
329476.811,241734.271,52.869,6527
329478.96,241734.745,52.865,6527
329480.928,241735.173,52.888,6527
329483.038,241735.638,52.833,6527
329485.039,241736.073,52.82,6527
329487.00800000003,241736.508,52.859,6527
329489.078,241736.96,52.797000000000004,6527
329491.053,241737.392,52.856,6527
329493.241,241737.872,52.859,6527
329495.124,241738.285,52.842,6527
329497.24,241738.749,52.859,6527
329499.281,241739.19700000001,52.833,6527
