259122.854,296597.351,33.854,6527
259120.843,296598.183,33.572,6527
259118.823,296599.028,33.661,6527
259116.86500000002,296599.839,33.601,6527
259114.871,296600.673,33.674,6527
259113.017,296601.452,33.697,6527
259110.981,296602.297,33.776,6527
259109.013,296603.118,33.799,6527
259107.04200000002,296603.943,33.789,6527
259104.995,296604.795,33.829,6527
259130.046,296596.96,34.313,6527
259128.009,296597.802,34.231,6527
259126.002,296598.64,34.064,6527
259124.07,296599.445,33.926,6527
259122.007,296600.3,33.559,6527
259120.177,296601.06200000003,33.549,6527
259118.09100000001,296601.93200000003,33.546,6527
259116.198,296602.724,33.588,6527
259114.306,296603.509,33.634,6527
259112.246,296604.374,33.716,6527
259131.847,296598.588,34.491,6527
259129.85,296599.416,34.235,6527
259127.816,296600.264,34.143,6527
259125.793,296601.103,33.926,6527
259123.834,296601.92100000003,33.798,6527
259121.76200000002,296602.786,33.506,6527
259119.87900000002,296603.568,33.47,6527
259117.809,296604.431,33.519,6527
259131.651,296600.43700000003,34.687,6527
259129.538,296601.31200000003,34.376,6527
259127.643,296602.10000000003,34.08,6527
259125.53100000002,296602.978,33.966,6527
259123.586,296603.787,33.788000000000004,6527
259121.5,296604.658,33.408,6527
259128.68,296604.513,34.192,6527
259128.143,296603.618,34.086,6527
259129.803,296599.355,34.188,6527
259127.885,296600.964,34.066,6527
259125.932,296602.619,33.886,6527
259123.978,296604.278,33.706,6527
259128.71300000002,296596.43700000003,34.224000000000004,6527
259126.848,296598.016,33.988,6527
259124.996,296599.586,33.833,6527
259123.065,296601.224,33.597,6527
259125.56900000002,296595.772,33.937,6527
259123.537,296597.49,33.764,6527
259121.812,296598.96,33.39,6527
259119.666,296600.77,33.406,6527
259117.63700000002,296602.472,33.554,6527
259115.71,296604.107,33.504,6527
259120.886,296598.21,33.498,6527
259118.79200000002,296599.984,33.481,6527
259116.851,296601.62,33.436,6527
259114.89800000002,296603.265,33.6,6527
259120.18600000002,296596.406,33.462,6527
259118.171,296598.11,33.524,6527
259116.253,296599.723,33.586,6527
259114.172,296601.487,33.557,6527
259112.258,296603.096,33.619,6527
259115.101,296596.677,33.672000000000004,6527
259113.108,296598.362,33.593,6527
259111.132,296600.02400000003,33.721000000000004,6527
259109.12600000002,296601.722,33.682,6527
259107.133,296603.4,33.668,6527
259111.14,296596.266,33.724000000000004,6527
259107.132,296599.64900000003,33.783,6527
259105.228,296601.251,33.734,6527
259103.134,296603.022,33.734,6527
259109.688,296595.329,33.708,6527
259103.775,296600.317,33.734,6527
259099.829,296603.654,33.685,6527
259092.861,296595.39,33.735,6527
259090.89500000002,296597.06200000003,33.532000000000004,6527
259089.104,296598.579,33.404,6527
259087.05000000002,296600.30700000003,33.292,6527
259094.00100000002,296597.977,33.657000000000004,6527
259092.071,296599.606,33.598,6527
259090.029,296601.33400000003,33.578,6527
259088.2,296602.877,33.443,6527
259086.184,296604.591,33.283,6527
259098.61800000002,296596.109,33.867,6527
259096.524,296597.877,33.853,6527
259094.685,296599.434,33.765,6527
259092.719,296601.102,33.637,6527
259090.778,296602.731,33.588,6527
259088.799,296604.412,33.509,6527
259098.795,296598.415,33.726,6527
259096.728,296600.166,33.67,6527
259094.73500000002,296601.846,33.673,6527
259092.85700000002,296603.438,33.591,6527
259106.152,296595.696,33.829,6527
259104.25,296597.302,33.885,6527
259102.196,296599.04600000003,33.793,6527
259100.252,296600.678,33.839,6527
259098.22400000002,296602.403,33.704,6527
259096.31900000002,296603.999,33.730000000000004,6527
259076.796,296591.972,34.178,6527
259078.809,296592.735,34.014,6527
259080.874,296593.525,33.886,6527
259084.979,296595.08400000003,33.393,6527
259077.381,296594.483,34.129,6527
259077.747,296588.947,34.129,6527
259079.84900000002,296589.743,33.985,6527
259082.003,296590.561,33.883,6527
259083.91400000002,296591.289,33.476,6527
259077.662,296590.093,34.129,6527
259079.816,296590.908,34.004,6527
259081.918,296591.714,33.893,6527
259083.97,296592.496,33.459,6527
259077.526,296584.488,34.25,6527
259079.654,296585.297,34.06,6527
259081.785,296586.109,33.886,6527
259083.73200000002,296586.856,33.509,6527
259078.305,296587.694,33.978,6527
259080.318,296588.457,33.899,6527
259082.396,296589.243,33.784,6527
259084.472,296590.042,33.328,6527
259085.579,296580.314,33.576,6527
259083.489,296583.825,33.479,6527
259077.855,296580.003,34.215,6527
259080.08800000002,296580.85000000003,34.091,6527
259082.154,296581.64,33.959,6527
259084.242,296582.442,33.526,6527
259079.46600000001,296582.28500000003,34.086,6527
259081.515,296583.071,33.909,6527
259085.4,296576.439,33.749,6527
259084.96600000001,296577.354,33.635,6527
259077.255,296577.141,34.324,6527
259079.462,296577.976,34.235,6527
259081.399,296578.716,34.209,6527
259083.527,296579.532,33.641,6527
259084.47,296581.265,33.601,6527
259082.967,296579.587,33.779,6527
259081.567,296578.003,34.31,6527
259080.025,296576.288,34.326,6527
259078.525,296594.666,34.083,6527
259077.059,296593.037,34.201,6527
259082.20200000002,296594.751,33.728,6527
259080.815,296593.203,33.942,6527
259079.295,296591.511,34.063,6527
259077.816,296589.87200000003,34.132,6527
259085.412,296593.706,33.421,6527
259083.959,296592.106,33.368,6527
259082.41700000002,296590.371,33.746,6527
259080.99000000002,296588.784,33.923,6527
259079.484,296587.115,33.998,6527
259077.95500000002,296585.401,34.172000000000004,6527
259084.839,296587.384,33.536,6527
259083.333,296585.719,33.647,6527
259081.946,296584.154,33.956,6527
259080.403,296582.443,34.116,6527
259079.013,296580.889,34.182,6527
259077.458,296579.168,34.307,6527
259084.583,296585.775,33.5,6527
259082.44,296584.506,33.848,6527
259083.741,296582.888,33.559,6527
259085.041,296581.26900000003,33.631,6527
259078.97,296585.2,34.111000000000004,6527
259080.371,296583.453,33.987,6527
259081.611,296581.903,33.974000000000004,6527
259082.999,296580.176,33.78,6527
259084.309,296578.52400000003,33.672000000000004,6527
259077.227,296585.28500000003,34.2,6527
259078.541,296583.643,34.164,6527
259079.907,296581.946,34.121,6527
259081.217,296580.304,34.121,6527
259082.56900000002,296578.62200000003,34.187,6527
259083.801,296577.05700000003,33.567,6527
259075.75400000002,296584.778,34.256,6527
259077.117,296583.08,34.233000000000004,6527
259078.43,296581.435,34.226,6527
259079.718,296579.83,34.197,6527
259081.106,296578.115,34.262,6527
259082.367,296576.533,34.262,6527
259075.91400000002,296580.422,34.325,6527
259077.266,296578.737,34.364,6527
259078.59,296577.099,34.351,6527
259075.875,296586.969,34.303,6527
259076.332,296588.494,34.207,6527
259077.681,296586.81,34.134,6527
259075.722,296592.9,34.243,6527
259077.123,296591.15,34.174,6527
259078.437,296589.521,34.105000000000004,6527
259079.812,296587.803,34.006,6527
259081.12600000002,296586.168,33.954,6527
259077.995,296594.011,34.082,6527
259079.295,296592.392,34.115,6527
259080.64800000002,296590.695,33.908,6527
259081.896,296589.148,33.888,6527
259083.219,296587.471,33.541000000000004,6527
259081.223,296594.039,33.846000000000004,6527
259082.573,296592.34500000003,33.79,6527
259083.821,296590.775,33.399,6527
259085.161,296589.11100000003,33.478,6527
259084.19400000002,296594.106,33.403,6527
259085.468,296592.52,33.564,6527
259085.427,296595.212,33.367,6527
259085.127,296583.487,33.686,6527
259083.10700000002,296584.332,33.641,6527
259081.293,296585.09,34.061,6527
259085.336,296581.471,33.641,6527
259083.329,296582.309,33.667,6527
259081.525,296583.067,33.962,6527
259079.544,296583.889,34.12,6527
259077.625,296584.694,34.192,6527
259075.696,296585.499,34.307,6527
259084.152,296580.476,33.552,6527
259082.211,296581.294,33.982,6527
259080.318,296582.083,34.051,6527
259078.36000000002,296582.904,34.126,6527
259076.34,296583.743,34.287,6527
259084.12900000002,296578.136,33.645,6527
259082.24000000002,296578.931,34.163000000000004,6527
259080.282,296579.753,34.212,6527
259078.26200000002,296580.594,34.203,6527
259076.241,296581.442,34.304,6527
259078.824,296576.672,34.38,6527
259076.928,296577.457,34.468,6527
259078.81100000002,296588.977,34.061,6527
259076.725,296589.84500000003,34.228,6527
259079.26,296585.935,34.146,6527
259077.403,296586.717,34.211,6527
259075.461,296587.525,34.356,6527
259084.434,296589.24700000003,33.531,6527
259082.515,296590.04600000003,33.813,6527
259080.574,296590.857,33.977000000000004,6527
259078.69400000002,296591.646,34.109,6527
259076.749,296592.457,34.24,6527
259084.551,296586.575,33.513,6527
259082.658,296587.367,33.887,6527
259080.677,296588.19800000003,34.001,6527
259084.536,296592.168,33.433,6527
259082.669,296592.953,33.758,6527
259080.728,296593.764,33.928,6527
259078.668,296594.626,34.033,6527
259084.432,296594.699,33.423,6527
259085.532,296583.923,33.562,6527
259083.464,296585.674,33.592,6527
259084.832,296582.03,33.579,6527
259080.595,296585.59500000003,34.035000000000004,6527
259085.026,296579.669,33.5,6527
259082.834,296581.513,33.815,6527
259080.854,296583.178,33.966,6527
259078.747,296584.962,34.015,6527
259081.133,296579.668,34.022,6527
259079.193,296581.31,34.104,6527
259077.05000000002,296583.114,34.215,6527
259081.492,296576.282,34.189,6527
259079.51200000002,296577.951,34.34,6527
259077.44400000002,296579.702,34.199,6527
259078.989,296577.576,34.399,6527
259078.587,296587.293,34.081,6527
259081.472,296587.341,33.935,6527
259079.441,296589.065,33.975,6527
259077.412,296590.767,34.155,6527
259080.412,296591.93,33.845,6527
259084.676,296590.98600000003,33.325,6527
259082.533,296592.77,33.85,6527
259080.439,296594.537,33.86,6527
259084.476,296593.26900000003,33.313,6527
259082.359,296595.044,33.806,6527
259085.257,296594.99,33.345,6527
259078.77300000002,296576.408,34.329,6527
259078.295,296578.275,34.381,6527
259083.937,296577.235,33.745,6527
259077.53100000002,296579.68200000003,34.208,6527
259080.233,296579.18200000003,34.267,6527
259082.859,296578.694,34.208,6527
259079.366,296580.329,34.098,6527
259082.028,296579.835,33.964,6527
259085.009,296579.29,33.623,6527
259079.612,296580.875,34.154,6527
259082.18600000002,296580.395,34.02,6527
259085.14,296579.857,33.554,6527
259077.80000000002,296582.586,34.266,6527
259080.462,296582.09500000003,34.147,6527
259077.487,296584.721,34.151,6527
259080.28,296584.203,34.134,6527
259079.64500000002,296585.657,34.105000000000004,6527
259085.288,296584.612,33.632,6527
259080.043,296585.701,34.069,6527
259082.728,296585.203,33.81,6527
259079.19400000002,296588.256,34.062,6527
259088.775,296591.669,33.475,6527
259090.866,296592.461,33.564,6527
259097.385,296594.926,33.679,6527
259086.187,296592.153,33.529,6527
259088.19,296592.909,33.564,6527
259090.446,296593.76,33.649,6527
259092.502,296594.536,33.738,6527
259086.203,296593.341,33.482,6527
259088.193,296594.091,33.596000000000004,6527
259090.541,296594.977,33.623,6527
259085.978,296587.703,33.542,6527
259088.07,296588.496,33.657000000000004,6527
259090.33000000002,296589.346,33.729,6527
259092.372,296590.123,33.781,6527
259086.54,296590.821,33.437,6527
259087.737,296581.13300000003,33.612,6527
259089.97,296581.977,33.766,6527
259092.128,296582.789,33.894,6527
259094.397,296583.656,33.807,6527
259096.426,296584.422,33.935,6527
259098.699,296585.283,33.952,6527
259100.725,296586.052,33.978,6527
259102.90600000002,296586.88,33.975,6527
259105.037,296587.692,33.926,6527
259107.076,296588.465,33.857,6527
259109.26,296589.293,33.837,6527
259111.22400000002,296590.041,33.778,6527
259085.659,296584.64900000003,33.555,6527
259087.791,296585.455,33.63,6527
259090.09900000002,296586.325,33.754,6527
259092.142,296587.101,33.81,6527
259094.401,296587.958,33.803,6527
259096.546,296588.767,33.908,6527
259098.71300000002,296589.592,33.879,6527
259100.831,296590.391,33.902,6527
259102.871,296591.167,33.964,6527
259105.143,296592.027,33.846000000000004,6527
259107.15600000002,296592.787,33.944,6527
259109.314,296593.612,33.764,6527
259111.428,296594.411,33.793,6527
259086.347,296583.234,33.621,6527
259094.606,296590.967,33.823,6527
259096.747,296591.779,33.944,6527
259098.918,296592.597,33.862,6527
259101.138,296593.438,33.852000000000004,6527
259103.23,296594.23,33.967,6527
259105.437,296595.068,33.925,6527
259098.70500000002,296576.972,33.993,6527
259100.708,296577.732,34.019,6527
259102.95500000002,296578.586,33.969,6527
259104.958,296579.347,33.995,6527
259107.073,296580.152,33.92,6527
259109.24300000002,296580.977,33.871,6527
259111.384,296581.792,33.864,6527
259087.545,296577.251,33.730000000000004,6527
259089.712,296578.079,33.822,6527
259091.78100000002,296578.859,33.923,6527
259094.037,296579.719,33.913000000000004,6527
259096.066,296580.48600000003,34.028,6527
259098.247,296581.314,34.012,6527
259100.36500000002,296582.119,34.064,6527
259102.496,296582.931,34.018,6527
259104.651,296583.753,33.943,6527
259106.756,296584.552,33.932,6527
259108.989,296585.396,33.949,6527
259110.979,296586.15,33.952,6527
259088.388,296576.629,33.744,6527
259090.48,296577.425,33.839,6527
259092.674,296578.26,33.872,6527
259094.88,296579.094,33.931,6527
259096.949,296579.88,34.069,6527
259099.117,296580.702,33.993,6527
259101.182,296581.491,34.01,6527
259103.468,296582.355,33.941,6527
259105.534,296583.141,33.931,6527
259107.714,296583.969,33.923,6527
259109.885,296584.794,33.894,6527
259111.924,296585.57,33.825,6527
259087.123,296578.169,33.779,6527
259089.294,296578.991,33.822,6527
259091.50100000002,296579.825,33.89,6527
259093.556,296580.605,33.979,6527
259095.737,296581.433,33.972,6527
259097.776,296582.20900000003,34.028,6527
259099.973,296583.04,34.041000000000004,6527
259102.065,296583.836,33.995,6527
259104.16700000002,296584.635,34.001,6527
259106.31100000002,296585.45,33.998,6527
259108.377,296586.23600000003,33.886,6527
259110.57,296587.067,33.903,6527
259112.587,296587.837,33.752,6527
259088.44,296584.027,33.696,6527
259090.634,296584.86100000003,33.745,6527
259092.729,296585.654,33.824,6527
259094.962,296586.501,33.853,6527
259097.07700000002,296587.3,33.883,6527
259099.274,296588.131,33.906,6527
259101.494,296588.972,33.899,6527
259103.559,296589.75800000003,33.896,6527
259105.753,296590.593,33.83,6527
259107.806,296591.369,33.909,6527
259109.999,296592.204,33.837,6527
259112.078,296592.99,33.729,6527
259104.934,296576.25800000003,34.059,6527
259107.026,296577.05700000003,34.049,6527
259109.246,296577.898,34.006,6527
259111.285,296578.678,33.964,6527
259110.252,296576.52400000003,34.019,6527
259112.43300000002,296577.359,33.901,6527
259113.574,296595.231,33.685,6527
259114.17,296593.79,33.739,6527
259116.26200000002,296594.579,33.666000000000004,6527
259113.468,296590.892,33.725,6527
259115.484,296591.659,33.696,6527
259117.612,296592.464,33.64,6527
259119.779,296593.292,33.492,6527
259121.756,296594.043,33.463,6527
259124.16,296594.952,33.837,6527
259114.844,296588.699,33.771,6527
259116.834,296589.452,33.657000000000004,6527
259118.95200000002,296590.261,33.584,6527
259121.106,296591.08,33.499,6527
259123.329,296591.914,33.876,6527
259125.59900000002,296592.77400000003,33.916000000000004,6527
259127.769,296593.59500000003,34.159,6527
259113.187,296586.998,33.804,6527
259115.226,296587.778,33.752,6527
259117.43300000002,296588.615,33.702,6527
259119.574,296589.43,33.591,6527
259121.70500000002,296590.238,33.545,6527
259123.95200000002,296591.089,33.788000000000004,6527
259125.981,296591.856,34.034,6527
259128.24000000002,296592.70900000003,34.175000000000004,6527
259117.63700000002,296581.101,33.707,6527
259119.778,296581.919,33.602000000000004,6527
259121.768,296582.676,33.605000000000004,6527
259124.044,296583.53,34.025,6527
259126.172,296584.339,34.146,6527
259114.44700000001,296578.119,33.831,6527
259116.53900000002,296578.92100000003,33.818,6527
259118.723,296579.752,33.694,6527
259120.73500000002,296580.51900000003,33.658,6527
259122.995,296581.376,33.933,6527
259125.153,296582.188,34.215,6527
259127.336,296583.023,34.258,6527
259131.793,296584.704,34.829,6527
259114.608,296576.464,33.796,6527
259116.674,296577.253,33.823,6527
259118.907,296578.104,33.737,6527
259120.93300000002,296578.874,33.599000000000004,6527
259123.26200000002,296579.753,34.085,6527
259125.34,296580.539,34.256,6527
259127.574,296581.387,34.298,6527
259131.92500000002,296583.04,34.544000000000004,6527
259120.04200000002,296576.765,33.642,6527
259124.498,296578.45,34.21,6527
259126.797,296579.32300000003,34.2,6527
259123.852,296576.675,34.226,6527
259125.996,296577.49,34.246,6527
259128.229,296578.344,34.308,6527
259114.119,296586.409,33.723,6527
259116.122,296587.166,33.779,6527
259118.316,296588.006,33.602000000000004,6527
259120.36800000002,296588.782,33.546,6527
259122.535,296589.61,33.53,6527
259124.798,296590.461,33.93,6527
259126.979,296591.28500000003,34.068,6527
259113.556,296582.617,33.831,6527
259115.556,296583.384,33.772,6527
259117.815,296584.241,33.615,6527
259119.855,296585.02,33.566,6527
259121.983,296585.829,33.53,6527
259124.272,296586.693,33.881,6527
259126.364,296587.485,33.959,6527
259113.44,296579.5,33.881,6527
259115.57200000001,296580.315,33.835,6527
259131.923,296577.923,34.722,6527
259111.98,296589.488,33.858000000000004,6527
259110.54,296587.884,33.94,6527
259108.945,296586.121,33.996,6527
259107.554,296584.563,34.029,6527
259105.959,296582.797,34.052,6527
259104.467,296581.141,34.049,6527
259102.921,296579.433,34.075,6527
259101.392,296577.728,34.131,6527
259112.211,296585.679,33.93,6527
259110.666,296583.972,33.95,6527
259109.199,296582.329,34.012,6527
259107.72,296580.686,34.065,6527
259106.241,296579.047,34.127,6527
259104.774,296577.417,34.104,6527
259112.382,296579.753,33.881,6527
259110.836,296578.036,34.016,6527
259109.459,296576.501,33.986000000000004,6527
259096.593,296594.677,33.775,6527
259095.064,296592.98600000003,33.884,6527
259093.55800000002,296591.317,33.798,6527
259092.065,296589.664,33.792,6527
259090.47,296587.888,33.801,6527
259089.08000000002,296586.37,33.69,6527
259087.48200000002,296584.60000000003,33.723,6527
259086.04200000002,296582.999,33.683,6527
259101.657,296594.636,33.864,6527
259100.125,296592.941,33.933,6527
259098.698,296591.347,33.926,6527
259097.1,296589.58400000003,33.824,6527
259095.633,296587.958,33.966,6527
259094.101,296586.273,33.801,6527
259092.532,296584.516,33.9,6527
259091.093,296582.93200000003,33.782000000000004,6527
259089.547,296581.221,33.798,6527
259088.002,296579.51900000003,33.716,6527
259086.459,296577.805,33.726,6527
259107.37,296594.45,33.911,6527
259105.89,296592.804,33.94,6527
259104.32200000001,296591.06,33.937,6527
259102.842,296589.427,34.026,6527
259101.416,296587.83400000003,34.012,6527
259099.82,296586.06,34.032000000000004,6527
259098.377,296584.463,34.006,6527
259096.733,296582.638,34.052,6527
259095.25,296581.002,33.999,6527
259093.681,296579.261,34.026,6527
259092.17500000002,296577.602,33.996,6527
259111.583,296593.074,33.852000000000004,6527
259110.014,296591.33400000003,33.862,6527
259108.508,296589.662,33.914,6527
259106.95,296587.941,33.878,6527
259105.44700000001,296586.265,34.068,6527
259103.954,296584.603,34.029,6527
259102.488,296582.97000000003,34.137,6527
259101.045,296581.37,34.091,6527
259099.41,296579.577,33.996,6527
259097.921,296577.905,34.078,6527
259096.451,296576.279,34.045,6527
259090.84900000002,296594.03,33.706,6527
259089.396,296592.423,33.644,6527
259087.824,296590.689,33.7,6527
259086.345,296589.04600000003,33.598,6527
259125.468,296586.863,33.96,6527
259124.038,296585.279,33.980000000000004,6527
259122.453,296583.53500000003,33.671,6527
259120.884,296581.808,33.593,6527
259119.467,296580.214,33.743,6527
259117.89800000002,296578.472,33.763,6527
259116.419,296576.82300000003,33.793,6527
259131.958,296587.851,34.584,6527
259127.36500000002,296582.763,34.368,6527
259125.84600000002,296581.071,34.312,6527
259124.366,296579.42100000003,34.325,6527
259122.652,296577.556,33.876,6527
259113.036,296594.697,33.717,6527
259116.405,296594.409,33.694,6527
259114.965,296592.816,33.671,6527
259113.486,296591.163,33.812,6527
259119.748,296594.063,33.638,6527
259118.179,296592.325,33.658,6527
259116.68600000002,296590.656,33.737,6527
259115.18,296588.984,33.773,6527
259113.691,296587.325,33.911,6527
259125.919,296594.78,34.072,6527
259124.386,296593.085,34.003,6527
259122.854,296591.397,33.802,6527
259121.246,296589.62,33.632,6527
259119.816,296588.04,33.668,6527
259118.247,296586.279,33.75,6527
259116.844,296584.722,33.763,6527
259115.328,296583.04,33.776,6527
259113.848,296581.397,33.822,6527
259127.063,296588.629,34.088,6527
259131.619,296581.806,34.834,6527
259127.009,296576.728,34.332,6527
259127.689,296585.41000000003,34.254,6527
259129.104,296583.65,34.31,6527
259125.428,296584.839,34.106,6527
259126.719,296583.243,34.234,6527
259128.133,296581.492,34.382,6527
259129.44700000001,296579.854,34.411,6527
259121.495,296585.76,33.552,6527
259122.873,296584.049,33.644,6527
259124.239,296582.371,34.073,6527
259125.605,296580.683,34.218,6527
259126.98,296578.978,34.273,6527
259128.255,296577.392,34.339,6527
259117.557,296584.745,33.758,6527
259118.972,296582.994,33.716,6527
259120.272,296581.379,33.624,6527
259121.638,296579.674,33.67,6527
259123.00400000002,296578.009,34.201,6527
259124.405,296576.262,34.332,6527
259114.929,296584.3,33.853,6527
259116.33000000002,296582.559,33.788000000000004,6527
259117.592,296580.993,33.735,6527
259119.007,296579.229,33.768,6527
259120.32,296577.601,33.739,6527
259113.33000000002,296584.728,33.749,6527
259114.63,296583.112,33.798,6527
259116.019,296581.385,33.804,6527
259117.345,296579.753,33.785000000000004,6527
259118.60700000002,296578.17,33.653,6527
259119.91700000002,296576.538,33.64,6527
259108.487,296585.799,33.906,6527
259109.775,296584.194,33.89,6527
259111.14,296582.503,33.87,6527
259112.402,296580.943,33.936,6527
259113.79,296579.203,33.85,6527
259115.09100000001,296577.594,33.857,6527
259105.1,296584.551,34.004,6527
259106.514,296582.791,33.991,6527
259107.78900000002,296581.212,34.031,6527
259109.16700000002,296579.491,33.988,6527
259110.53,296577.79,34.011,6527
259106.949,296579.48,34.078,6527
259108.34100000001,296577.763,34.045,6527
259102.959,296584.455,34.081,6527
259104.325,296582.754,34.091,6527
259105.64800000002,296581.099,34.025,6527
259099.937,296585.168,34.025,6527
259101.303,296583.466,34.042,6527
259102.616,296581.831,34.012,6527
259103.979,296580.15,34.091,6527
259105.29200000002,296578.50800000003,34.117,6527
259106.58000000002,296576.906,34.087,6527
259096.23200000002,296584.824,33.956,6527
259097.547,296583.189,33.92,6527
259098.935,296581.478,34.009,6527
259100.187,296579.922,34.071,6527
259101.601,296578.161,34.071,6527
259102.837,296576.625,34.019,6527
259093.42500000002,296585.279,33.851,6527
259094.843,296583.532,33.93,6527
259096.131,296581.917,33.966,6527
259097.47,296580.268,34.045,6527
259098.833,296578.56,34.084,6527
259100.133,296576.955,34.087,6527
259090.91700000002,296585.766,33.786,6527
259092.244,296584.114,33.841,6527
259093.64500000002,296582.374,33.910000000000004,6527
259094.946,296580.752,33.996,6527
259096.347,296579.00800000003,34.055,6527
259097.59900000002,296577.461,34.048,6527
259087.892,296585.734,33.677,6527
259089.258,296584.023,33.723,6527
259090.594,296582.364,33.818,6527
259091.999,296580.63,33.864,6527
259093.348,296578.949,33.933,6527
259094.727,296577.228,34.038000000000004,6527
259085.949,296584.091,33.592,6527
259087.35,296582.344,33.671,6527
259088.651,296580.719,33.753,6527
259090.06900000002,296578.968,33.871,6527
259091.317,296577.415,33.887,6527
259086.43,296579.532,33.645,6527
259087.756,296577.89,33.828,6527
259085.649,296576.856,33.662,6527
259086.589,296587.33400000003,33.567,6527
259086.922,296590.723,33.583,6527
259088.174,296589.164,33.639,6527
259089.58800000002,296587.413,33.747,6527
259086.717,296593.607,33.475,6527
259088.132,296591.86,33.57,6527
259089.472,296590.19800000003,33.701,6527
259090.759,296588.602,33.787,6527
259092.109,296586.908,33.741,6527
259089.524,296593.162,33.517,6527
259090.799,296591.582,33.677,6527
259092.239,296589.786,33.717,6527
259093.50400000002,296588.22000000003,33.818,6527
259094.892,296586.48600000003,33.838,6527
259088.093,296594.93200000003,33.478,6527
259091.878,296595.184,33.682,6527
259093.153,296593.59500000003,33.754,6527
259094.532,296591.891,33.777,6527
259095.907,296590.176,33.852000000000004,6527
259097.26,296588.495,33.928,6527
259098.623,296586.797,33.915,6527
259094.825,296594.551,33.78,6527
259096.2,296592.843,33.813,6527
259097.514,296591.208,33.983000000000004,6527
259098.954,296589.418,33.977000000000004,6527
259100.18,296587.908,33.938,6527
259101.621,296586.108,33.983000000000004,6527
259097.11800000002,296594.469,33.858000000000004,6527
259098.445,296592.821,33.904,6527
259099.834,296591.097,34.032000000000004,6527
259101.147,296589.461,34.015,6527
259102.448,296587.849,34.045,6527
259103.797,296586.165,33.986000000000004,6527
259101.731,296594.204,33.907000000000004,6527
259103.055,296592.56200000003,33.93,6527
259104.473,296590.798,33.946,6527
259105.76,296589.196,33.933,6527
259107.162,296587.465,33.933,6527
259105.218,296594.808,33.847,6527
259106.649,296593.041,33.893,6527
259107.95,296591.43200000003,33.913000000000004,6527
259109.22100000002,296589.843,33.804,6527
259110.613,296588.109,33.831,6527
259111.93600000002,296586.47000000003,33.844,6527
259107.014,296594.141,33.913000000000004,6527
259108.236,296592.624,33.936,6527
259109.66400000002,296590.857,33.985,6527
259110.938,296589.25800000003,33.936,6527
259112.304,296587.56,33.929,6527
259113.68,296585.849,33.844,6527
259109.653,296594.578,33.868,6527
259110.941,296592.97500000003,33.838,6527
259112.342,296591.238,33.904,6527
259113.617,296589.646,33.809,6527
259114.953,296587.987,33.776,6527
259116.293,296586.319,33.792,6527
259114.915,296593.943,33.713,6527
259116.242,296592.28500000003,33.648,6527
259117.555,296590.663,33.582,6527
259118.83000000002,296589.077,33.628,6527
259120.192,296587.37,33.53,6527
259117.29,296594.918,33.614,6527
259118.718,296593.154,33.673,6527
259119.992,296591.56200000003,33.575,6527
259121.332,296589.904,33.535000000000004,6527
259122.698,296588.216,33.67,6527
259124.037,296586.564,33.955,6527
259120.836,296593.88300000003,33.598,6527
259122.238,296592.136,33.539,6527
259123.63,296590.438,33.909,6527
259125.009,296588.724,34.018,6527
259126.375,296587.04,34.123,6527
259129.598,296588.731,34.28,6527
259125.553,296593.74700000003,34.012,6527
259126.893,296592.082,34.163000000000004,6527
259128.268,296590.385,34.196,6527
259129.45200000002,296593.60000000003,34.323,6527
259131.75400000002,296594.814,34.677,6527
259130.116,296580.631,34.377,6527
259128.109,296581.473,34.314,6527
259126.111,296582.305,34.232,6527
259124.192,296583.103,34.131,6527
259122.028,296584.001,33.602000000000004,6527
259120.158,296584.78,33.596000000000004,6527
259118.125,296585.625,33.665,6527
259125.935,296580.08,34.331,6527
259124.055,296580.865,34.242,6527
259121.891,296581.757,33.744,6527
259120.008,296582.542,33.671,6527
259117.92500000002,296583.414,33.816,6527
259116.016,296584.204,33.806,6527
259113.97,296585.059,33.799,6527
259127.921,296576.574,34.39,6527
259125.82200000001,296577.452,34.288000000000004,6527
259123.89,296578.254,34.308,6527
259121.814,296579.115,33.684,6527
259119.856,296579.934,33.744,6527
259117.937,296580.729,33.704,6527
259115.956,296581.556,33.829,6527
259114.037,296582.358,33.901,6527
259112.053,296583.183,33.865,6527
259110.05800000002,296584.014,33.917,6527
259108.1,296584.836,33.980000000000004,6527
259106.067,296585.681,34.055,6527
259119.911,296577.423,33.724000000000004,6527
259118.054,296578.201,33.734,6527
259115.932,296579.088,33.852000000000004,6527
259114.141,296579.833,33.868,6527
259112.029,296580.715,33.888,6527
259110.163,296581.49,33.911,6527
259108.182,296582.318,34.006,6527
259106.19700000001,296583.143,34.013,6527
259104.331,296583.922,34.016,6527
259102.34600000002,296584.75,34.131,6527
259114.092,296576.88,33.963,6527
259112.121,296577.701,33.99,6527
259110.228,296578.493,33.999,6527
259108.19400000002,296579.341,34.068,6527
259106.312,296580.123,34.013,6527
259104.318,296580.958,34.072,6527
259102.386,296581.763,34.075,6527
259100.431,296582.581,34.183,6527
259094.416,296585.083,33.813,6527
259130.22100000002,296584.169,34.435,6527
259128.122,296585.044,34.343,6527
259128.19,296583.179,34.333,6527
259126.258,296583.984,34.169000000000004,6527
259124.225,296584.829,34.071,6527
259122.29,296585.634,33.592,6527
259108.285,296576.686,34.066,6527
259106.418,296577.464,34.046,6527
259104.372,296578.319,34.043,6527
259102.489,296579.097,34.033,6527
259094.41700000002,296582.467,33.873,6527
259092.472,296583.279,33.841,6527
259090.438,296584.124,33.772,6527
259088.595,296584.895,33.723,6527
259086.548,296585.744,33.591,6527
259101.045,296576.851,34.158,6527
259093.098,296580.164,33.978,6527
259091.144,296580.979,33.916000000000004,6527
259089.07,296581.84,33.801,6527
259087.086,296582.672,33.762,6527
259121.983,296576.561,33.665,6527
259093.17,296578.207,33.946,6527
259091.287,296578.989,33.887,6527
259089.252,296579.837,33.772,6527
259087.242,296580.679,33.65,6527
259094.032,296576.365,33.951,6527
259092.035,296577.196,33.883,6527
259090.053,296578.021,33.857,6527
259088.082,296578.839,33.749,6527
259086.032,296579.691,33.604,6527
259088.085,296576.496,33.75,6527
259085.94700000001,296577.384,33.697,6527
259092.522,296585.878,33.83,6527
259090.446,296586.739,33.758,6527
259088.465,296587.568,33.722,6527
259086.445,296588.409,33.682,6527
259094.529,296588.006,33.725,6527
259092.457,296588.871,33.745,6527
259090.574,296589.656,33.731,6527
259088.478,296590.528,33.692,6527
259086.517,296591.343,33.453,6527
259104.187,296586.469,33.963,6527
259102.141,296587.317,33.999,6527
259094.31100000002,296590.58400000003,33.836,6527
259092.326,296591.409,33.813,6527
259090.381,296592.221,33.669000000000004,6527
259088.32200000001,296593.079,33.63,6527
259086.426,296593.867,33.505,6527
259112.015,296585.877,33.999,6527
259110.136,296586.666,33.914,6527
259108.09900000002,296587.514,33.986000000000004,6527
259106.285,296588.272,34.032000000000004,6527
259104.18600000002,296589.14400000003,33.996,6527
259102.241,296589.956,33.99,6527
259100.388,296590.734,34.325,6527
259098.236,296591.626,33.889,6527
259096.316,296592.424,33.83,6527
259094.191,296593.31200000003,33.827,6527
259092.33800000002,296594.08400000003,33.758,6527
259090.239,296594.955,33.702,6527
259098.426,296593.843,33.863,6527
259096.568,296594.618,33.764,6527
259116.154,296586.44800000003,33.675,6527
259114.264,296587.24,33.855000000000004,6527
259112.293,296588.06200000003,33.875,6527
259110.27300000002,296588.9,33.855000000000004,6527
259108.288,296589.728,33.819,6527
259106.383,296590.527,33.947,6527
259104.336,296591.385,33.934,6527
259102.352,296592.207,33.928,6527
259100.397,296593.022,33.836,6527
259120.296,296586.466,33.647,6527
259118.324,296587.287,33.664,6527
259116.40600000002,296588.088,33.762,6527
259114.47400000002,296588.893,33.775,6527
259112.54200000002,296589.695,33.841,6527
259110.548,296590.53,33.884,6527
259108.655,296591.321,33.913000000000004,6527
259106.517,296592.206,33.87,6527
259104.663,296592.985,33.917,6527
259102.718,296593.79,33.917,6527
259100.672,296594.648,33.888,6527
259126.138,296585.865,34.13,6527
259124.065,296586.727,34.031,6527
259122.081,296587.555,33.661,6527
259120.06,296588.4,33.582,6527
259118.128,296589.202,33.615,6527
259116.17,296590.016,33.697,6527
259114.215,296590.831,33.772,6527
259112.34600000002,296591.616,33.733000000000004,6527
259110.388,296592.428,33.841,6527
259108.495,296593.219,33.897,6527
259106.475,296594.064,33.848,6527
259104.49000000002,296594.889,33.812,6527
259129.085,296588.242,34.297000000000004,6527
259127.153,296589.047,34.146,6527
259125.028,296589.93200000003,33.943,6527
259123.083,296590.737,33.792,6527
259120.994,296591.608,33.562,6527
259119.141,296592.38300000003,33.608000000000004,6527
259117.04200000002,296593.254,33.697,6527
259115.113,296594.06200000003,33.72,6527
259113.207,296594.854,33.739,6527
259128.57200000001,296591.648,34.202,6527
259126.5,296592.513,34.08,6527
259124.528,296593.335,33.916000000000004,6527
259122.416,296594.20900000003,33.631,6527
259120.497,296595.011,33.536,6527
259128.10700000002,296593.564,34.294000000000004,6527
259126.201,296594.359,34.084,6527
259124.151,296595.207,33.926,6527
259128.768,296594.893,34.294000000000004,6527
259126.92500000002,296582.928,34.141,6527
259125.011,296584.547,34.033,6527
259127.989,296577.253,34.285000000000004,6527
259125.961,296578.965,34.161,6527
259123.994,296580.627,34.085,6527
259120.261,296583.802,33.495,6527
259118.284,296585.461,33.688,6527
259127.491,296580.28500000003,34.246,6527
259125.48500000002,296581.988,34.115,6527
259123.581,296583.60000000003,33.885,6527
259121.742,296585.163,33.514,6527
259118.663,296581.658,33.546,6527
259114.655,296585.031,33.654,6527
259120.427,296577.699,33.615,6527
259118.372,296579.434,33.674,6527
259116.392,296581.10000000003,33.789,6527
259114.377,296582.808,33.763,6527
259112.473,296584.41000000003,33.802,6527
259112.605,296578.718,33.904,6527
259110.625,296580.387,33.854,6527
259106.614,296583.767,33.976,6527
259104.533,296585.537,33.874,6527
259119.703,296576.266,33.687,6527
259117.636,296578.017,33.7,6527
259115.682,296579.66000000003,33.756,6527
259113.589,296581.43,33.825,6527
259111.623,296583.089,33.936,6527
259109.682,296584.738,33.825,6527
259105.872,296580.72500000003,33.864,6527
259106.956,296576.646,34.045,6527
259104.901,296578.381,34.019,6527
259102.84600000002,296580.109,34.068,6527
259100.932,296581.737,34.081,6527
259098.874,296583.47500000003,33.884,6527
259096.934,296585.11,33.933,6527
259104.176,296576.619,34.051,6527
259102.095,296578.38,34.015,6527
259100.203,296579.976,34.035000000000004,6527
259098.149,296581.71,34.009,6527
259096.283,296583.289,33.884,6527
259094.291,296584.964,33.871,6527
259100.247,296577.81200000003,34.045,6527
259098.28100000002,296579.481,33.910000000000004,6527
259096.37600000002,296581.08,33.95,6527
259094.30800000002,296582.824,33.868,6527
259092.456,296584.397,33.809,6527
259097.988,296577.083,33.923,6527
259094.18300000002,296580.301,33.854,6527
259092.138,296582.022,33.789,6527
259090.364,296583.532,33.641,6527
259088.293,296585.277,33.562,6527
259093.22100000002,296577.422,33.848,6527
259091.28100000002,296579.067,33.835,6527
259089.377,296580.673,33.704,6527
259087.397,296582.354,33.612,6527
259090.581,296577.17,33.851,6527
259088.703,296578.766,33.769,6527
259086.733,296580.431,33.549,6527
259088.756,296576.518,33.671,6527
259086.816,296578.163,33.644,6527
259127.46,296594.17,34.102000000000004,6527
259128.53900000002,296591.735,34.19,6527
259126.56,296593.42,34.0,6527
259124.708,296594.982,33.908,6527
259127.749,296590.006,34.128,6527
259125.91,296591.559,33.993,6527
259123.98200000002,296593.194,33.842,6527
259122.218,296594.69800000003,33.478,6527
259126.71,296586.858,34.098,6527
259124.871,296588.417,33.898,6527
259122.941,296590.059,33.668,6527
259121.027,296591.681,33.475,6527
259119.034,296593.363,33.56,6527
259117.015,296595.065,33.527,6527
259123.041,296586.219,33.708,6527
259121.20200000002,296587.781,33.524,6527
259119.18300000002,296589.483,33.57,6527
259117.11500000002,296591.224,33.557,6527
259115.17500000002,296592.86,33.691,6527
259113.081,296594.63,33.688,6527
259119.635,296586.94,33.511,6527
259117.74300000002,296588.533,33.514,6527
259115.662,296590.287,33.645,6527
259113.836,296591.836,33.603,6527
259086.43600000002,296586.846,33.497,6527
259090.461,296586.08,33.729,6527
259088.508,296587.738,33.571,6527
259086.617,296589.33400000003,33.509,6527
259092.27000000002,296586.681,33.789,6527
259090.32700000002,296588.32,33.76,6527
259088.285,296590.051,33.543,6527
259086.42,296591.63,33.523,6527
259094.95200000002,296586.79,33.83,6527
259093.1,296588.349,33.748,6527
259091.12,296590.02400000003,33.735,6527
259089.163,296591.683,33.578,6527
259087.236,296593.318,33.542,6527
259095.959,296589.088,33.827,6527
259102.66700000002,296587.10000000003,33.893,6527
259098.698,296590.461,33.883,6527
259096.706,296592.143,33.791000000000004,6527
259094.752,296593.795,33.709,6527
259107.6,296586.489,33.933,6527
259105.699,296588.088,33.965,6527
259103.654,296589.822,33.929,6527
259101.828,296591.362,33.89,6527
259099.835,296593.047,33.808,6527
259097.89500000002,296594.68200000003,33.853,6527
259110.418,296586.141,33.854,6527
259108.477,296587.777,33.9,6527
259106.445,296589.495,33.914,6527
259104.495,296591.14,33.992,6527
259102.516,296592.822,33.896,6527
259100.546,296594.48,33.827,6527
259112.738,296586.64400000003,33.717,6527
259110.67,296588.395,33.733000000000004,6527
259108.66700000002,296590.076,33.835,6527
259106.662,296591.771,33.868,6527
259104.695,296593.44,33.831,6527
259102.78100000002,296595.055,33.822,6527
259114.247,296588.864,33.711,6527
259112.14,296590.648,33.731,6527
259110.15,296592.326,33.813,6527
259108.131,296594.031,33.78,6527
259089.177,296576.263,33.912,6527
259085.659,296578.18,33.748,6527
259088.259,296577.696,33.916000000000004,6527
259090.784,296577.229,33.955,6527
259093.498,296576.722,34.089,6527
259087.56900000002,296578.813,33.59,6527
259090.12,296578.339,33.757,6527
259092.733,296577.849,33.885,6527
259087.74000000002,296579.37,33.711,6527
259090.15,296578.92,33.855000000000004,6527
259085.98,296581.076,33.721000000000004,6527
259088.38700000002,296580.626,33.714,6527
259085.769,296583.188,33.665,6527
259088.267,296582.721,33.659,6527
259076.987,296573.23,34.347,6527
259079.283,296574.104,34.314,6527
259081.259,296574.848,34.353,6527
259083.384,296575.676,33.684,6527
259077.853,296572.615,34.305,6527
259079.958,296573.417,34.308,6527
259084.09900000002,296575.002,33.649,6527
259076.53900000002,296574.135,34.268,6527
259078.631,296574.931,34.36,6527
259080.864,296575.779,34.242,6527
259076.946,296558.783,34.339,6527
259079.09,296559.605,34.326,6527
259081.143,296560.388,34.263,6527
259083.208,296561.18,34.004,6527
259077.606,296560.571,34.296,6527
259079.684,296561.364,34.322,6527
259081.891,296562.208,34.26,6527
259078.51,296562.70900000003,34.322,6527
259080.589,296563.495,34.312,6527
259082.69400000002,296564.304,34.181,6527
259084.704,296565.081,33.646,6527
259077.086,296565.652,34.436,6527
259079.191,296566.457,34.305,6527
259081.296,296567.259,34.285000000000004,6527
259083.358,296568.052,33.754,6527
259085.53900000002,296568.887,33.731,6527
259078.402,296564.39,34.4,6527
259080.431,296565.164,34.403,6527
259082.598,296565.992,34.203,6527
259084.519,296566.733,33.724000000000004,6527
259077.17500000002,296568.776,34.318,6527
259079.382,296569.617,34.246,6527
259081.39500000002,296570.38300000003,34.183,6527
259085.536,296571.97500000003,33.593,6527
259077.487,296548.776,34.401,6527
259079.566,296549.569,34.417,6527
259081.711,296550.387,34.365,6527
259078.76200000002,296550.722,34.391,6527
259080.765,296551.495,34.312,6527
259082.893,296552.30700000003,34.24,6527
259084.866,296553.071,33.663000000000004,6527
259078.332,296555.454,34.368,6527
259080.384,296556.24,34.322,6527
259084.45,296557.803,33.686,6527
259076.487,296552.402,34.286,6527
259078.64500000002,296553.224,34.283,6527
259080.759,296554.036,34.198,6527
259083.019,296554.896,34.152,6527
259084.9,296555.631,33.571,6527
259078.172,296557.427,34.414,6527
259080.40600000002,296558.278,34.414,6527
259084.366,296559.805,33.725,6527
259077.748,296546.697,34.352000000000004,6527
259079.84,296547.496,34.286,6527
259081.97100000002,296548.318,34.247,6527
259077.551,296548.346,34.424,6527
259079.59,296549.129,34.434,6527
259081.748,296549.957,34.349000000000004,6527
259084.176,296562.686,33.705,6527
259082.825,296561.168,34.099000000000004,6527
259081.309,296559.463,34.328,6527
259079.90600000002,296557.905,34.368,6527
259078.337,296556.161,34.404,6527
259076.831,296554.499,34.410000000000004,6527
259084.715,296559.254,33.747,6527
259083.298,296557.676,33.852000000000004,6527
259081.861,296556.043,34.292,6527
259080.316,296554.329,34.322,6527
259078.863,296552.712,34.381,6527
259077.334,296551.004,34.447,6527
259084.904,296555.39,33.751,6527
259081.987,296552.11100000003,34.263,6527
259080.547,296550.504,34.384,6527
259079.028,296548.81200000003,34.374,6527
259077.58800000002,296547.206,34.483000000000004,6527
259085.051,296549.409,33.692,6527
259083.545,296547.734,33.774,6527
259078.621,296574.734,34.363,6527
259084.91400000002,296576.097,33.756,6527
259081.948,296572.76900000003,34.317,6527
259080.505,296571.172,34.300000000000004,6527
259078.986,296569.487,34.307,6527
259077.533,296567.867,34.353,6527
259084.61000000002,296569.233,33.675,6527
259081.66700000002,296565.924,34.331,6527
259080.14800000002,296564.239,34.341,6527
259078.602,296562.528,34.381,6527
259077.149,296560.912,34.437,6527
259085.142,296575.402,33.668,6527
259083.652,296574.908,33.652,6527
259084.95200000002,296573.29600000003,33.678,6527
259079.916,296575.434,34.315,6527
259081.269,296573.759,34.321,6527
259082.592,296572.101,34.256,6527
259083.801,296570.561,33.675,6527
259085.11500000002,296568.936,33.747,6527
259076.422,296576.254,34.403,6527
259077.81100000002,296574.533,34.344,6527
259079.111,296572.915,34.38,6527
259080.487,296571.194,34.318,6527
259081.82700000002,296569.526,34.312,6527
259083.098,296567.927,33.901,6527
259084.461,296566.203,33.668,6527
259075.882,296574.972,34.442,6527
259077.271,296573.238,34.438,6527
259078.55800000002,296571.636,34.383,6527
259079.872,296569.99700000003,34.376,6527
259081.18300000002,296568.362,34.347,6527
259082.509,296566.707,34.258,6527
259083.793,296565.072,33.69,6527
259085.055,296563.513,33.756,6527
259075.684,296571.631,34.433,6527
259076.946,296570.061,34.403,6527
259078.347,296568.301,34.357,6527
259079.662,296566.68200000003,34.423,6527
259081.076,296564.909,34.295,6527
259082.328,296563.352,34.334,6527
259083.59900000002,296561.731,33.728,6527
259084.909,296560.09500000003,33.688,6527
259075.492,296568.153,34.453,6527
259076.893,296566.39900000003,34.407000000000004,6527
259078.168,296564.82300000003,34.394,6527
259079.556,296563.079,34.298,6527
259080.85700000002,296561.467,34.302,6527
259082.144,296559.855,34.312,6527
259083.37600000002,296558.289,33.708,6527
259084.66400000002,296556.68,33.705,6527
259076.582,296565.908,34.403,6527
259077.87,296564.29600000003,34.42,6527
259079.271,296562.552,34.308,6527
259080.51,296561.006,34.302,6527
259081.885,296559.28500000003,34.248,6527
259083.146,296557.7,33.92,6527
259084.404,296556.107,33.645,6527
259076.05800000002,296565.23,34.386,6527
259077.345,296563.624,34.37,6527
259078.76,296561.857,34.373,6527
259080.021,296560.28500000003,34.333,6527
259081.383,296558.58400000003,34.343,6527
259082.711,296556.925,34.265,6527
259083.943,296555.356,33.687,6527
259085.309,296553.655,33.684,6527
259076.571,296559.778,34.399,6527
259077.907,296558.106,34.389,6527
259079.309,296556.352,34.337,6527
259080.59600000002,296554.744,34.33,6527
259081.975,296553.01900000003,34.297000000000004,6527
259083.171,296551.513,34.051,6527
259084.442,296549.911,33.651,6527
259076.747,296556.022,34.422000000000004,6527
259078.083,296554.344,34.311,6527
259079.43600000002,296552.659,34.379,6527
259080.759,296551.004,34.291000000000004,6527
259082.09900000002,296549.339,34.274,6527
259083.334,296547.78,33.799,6527
259076.48200000002,296554.428,34.383,6527
259077.82200000001,296552.76,34.379,6527
259079.14500000002,296551.09500000003,34.33,6527
259080.511,296549.404,34.297000000000004,6527
259081.798,296547.789,34.32,6527
259076.165,296552.248,34.494,6527
259077.429,296550.675,34.448,6527
259078.753,296549.017,34.386,6527
259080.066,296547.382,34.347,6527
259075.953,296550.177,34.576,6527
259077.328,296548.453,34.35,6527
259078.551,296546.93,34.373,6527
259076.621,296547.473,34.344,6527
259084.564,296574.268,33.737,6527
259082.632,296575.076,34.104,6527
259080.79200000002,296575.851,34.363,6527
259083.965,296572.124,33.74,6527
259082.177,296572.876,34.226,6527
259080.166,296573.711,34.288000000000004,6527
259078.25100000002,296574.516,34.36,6527
259076.28,296575.341,34.383,6527
259085.16,296569.81,33.704,6527
259083.152,296570.652,33.865,6527
259081.312,296571.42,34.324,6527
259079.38,296572.229,34.347,6527
259077.409,296573.05,34.376,6527
259075.53,296573.835,34.501,6527
259083.956,296567.67100000003,33.645,6527
259082.054,296568.476,34.258,6527
259080.174,296569.257,34.235,6527
259078.154,296570.102,34.367,6527
259076.297,296570.877,34.396,6527
259084.399,296562.952,33.77,6527
259082.458,296563.767,34.229,6527
259080.486,296564.592,34.409,6527
259078.594,296565.387,34.452,6527
259076.511,296566.252,34.491,6527
259085.097,296564.458,33.802,6527
259083.27000000002,296565.226,33.976,6527
259081.315,296566.048,34.367,6527
259079.383,296566.853,34.409,6527
259077.451,296567.654,34.452,6527
259075.52300000002,296568.466,34.678,6527
259085.31100000002,296560.518,33.706,6527
259083.317,296561.35000000003,33.96,6527
259081.565,296562.082,34.311,6527
259079.55800000002,296562.923,34.311,6527
259077.639,296563.728,34.38,6527
259075.658,296564.556,34.698,6527
259084.564,296557.07300000003,33.631,6527
259082.753,296557.838,34.14,6527
259080.834,296558.64,34.242,6527
259078.774,296559.501,34.34,6527
259076.869,296560.293,34.334,6527
259084.07200000001,296552.54,33.72,6527
259082.209,296553.325,34.344,6527
259080.339,296554.103,34.341,6527
259078.31900000002,296554.951,34.446,6527
259076.44,296555.733,34.410000000000004,6527
259084.32,296554.051,33.683,6527
259082.457,296554.843,34.288000000000004,6527
259080.565,296555.628,34.373,6527
259078.593,296556.453,34.38,6527
259076.701,296557.245,34.432,6527
259085.36800000002,296550.042,33.609,6527
259083.50100000002,296550.82,33.943,6527
259081.573,296551.628,34.317,6527
259079.602,296552.453,34.332,6527
259077.722,296553.241,34.394,6527
259075.767,296554.06,34.827,6527
259084.566,296548.011,33.625,6527
259082.791,296548.76,34.216,6527
259080.731,296549.624,34.285000000000004,6527
259078.799,296550.429,34.338,6527
259076.753,296551.284,34.328,6527
259081.975,296546.585,34.353,6527
259080.06900000002,296547.377,34.38,6527
259078.032,296548.228,34.43,6527
259076.117,296549.033,34.473,6527
259085.37,296576.103,33.582,6527
259083.736,296574.396,33.654,6527
259085.087,296572.445,33.747,6527
259080.939,296575.941,34.242,6527
259084.258,296570.98600000003,33.57,6527
259081.913,296572.952,34.166000000000004,6527
259080.026,296574.541,34.261,6527
259084.548,296566.367,33.644,6527
259082.339,296568.227,34.091,6527
259078.35700000002,296571.58,34.265,6527
259085.237,296562.817,33.734,6527
259080.939,296566.43200000003,34.315,6527
259078.959,296568.098,34.377,6527
259076.954,296569.79600000003,34.331,6527
259084.362,296561.963,33.608000000000004,6527
259082.11800000002,296563.847,34.219,6527
259080.09900000002,296565.545,34.268,6527
259078.159,296567.174,34.399,6527
