682549.77,4213805.91,413.36,6346
682550.99,4213806.22,413.37,6346
682551.88,4213806.69,413.38,6346
682551.17,4213805.82,413.37,6346
682551.89,4213806.07,413.38,6346
682552.02,4213805.79,413.39,6346
682551.73,4213805.66,413.37,6346
682552.63,4213806.1,413.35,6346
682553.36,4213805.5200000005,413.42,6346
682553.5,4213806.53,413.37,6346
682552.67,4213805.45,413.41,6346
682553.67,4213806.51,413.37,6346
682552.54,4213805.7,413.34000000000003,6346
682555.02,4213805.35,413.33,6346
682554.25,4213805.94,413.42,6346
682554.41,4213805.93,413.42,6346
682555.17,4213805.34,413.35,6346
682555.09,4213806.34,413.41,6346
682555.21,4213806.55,413.42,6346
682556.0,4213806.3100000005,413.36,6346
682556.75,4213805.72,413.35,6346
682555.89,4213805.73,413.36,6346
682555.79,4213806.47,413.36,6346
682556.01,4213805.94,413.37,6346
682558.06,4213805.65,413.34000000000003,6346
682557.3,4213806.24,413.35,6346
682557.71,4213806.35,413.35,6346
682556.8200000001,4213805.33,413.35,6346
682557.9,4213806.65,413.37,6346
682557.6900000001,4213806.24,413.41,6346
682559.31,4213806.36,413.35,6346
682558.4500000001,4213805.78,413.37,6346
682559.29,4213805.92,413.33,6346
682558.49,4213806.54,413.42,6346
682559.46,4213806.41,413.36,6346
682559.49,4213805.6,413.34000000000003,6346
682559.3,4213805.59,413.38,6346
682558.42,4213805.67,413.36,6346
682560.05,4213805.78,413.35,6346
682560.96,4213806.17,413.39,6346
682560.8200000001,4213806.46,413.35,6346
682561.73,4213805.57,413.39,6346
682561.56,4213805.88,413.41,6346
682562.4400000001,4213806.0600000005,413.41,6346
682561.65,4213806.68,413.42,6346
682562.48,4213806.3100000005,413.40000000000003,6346
682561.39,4213806.2700000005,413.42,6346
682562.13,4213805.71,413.40000000000003,6346
682563.29,4213806.25,413.36,6346
682563.23,4213805.44,413.42,6346
682564.02,4213805.67,413.49,6346
682565.28,4213805.6,413.77,6346
682564.56,4213806.19,413.43,6346
682564.87,4213806.21,413.46000000000004,6346
682565.26,4213806.71,413.42,6346
682565.17,4213805.78,413.77,6346
682566.02,4213806.63,413.55,6346
682565.58,4213805.63,413.77,6346
682565.98,4213806.11,413.91,6346
682565.91,4213806.66,413.45,6346
682543.99,4213806.75,413.69,6346
682544.33,4213806.94,414.41,6346
682545.4,4213807.24,413.53000000000003,6346
682544.88,4213807.88,413.73,6346
682545.65,4213807.3,413.5,6346
682546.04,4213807.93,413.82,6346
682547.06,4213807.79,413.46000000000004,6346
682547.8,4213807.21,413.42,6346
682546.87,4213807.3,413.44,6346
682547.55,4213807.59,413.43,6346
682547.55,4213807.2,413.43,6346
682547.26,4213807.04,413.46000000000004,6346
682549.3,4213807.0200000005,413.41,6346
682548.56,4213807.6,413.42,6346
682548.92,4213807.58,413.46000000000004,6346
682549.67,4213806.99,413.42,6346
682549.52,4213807.93,413.43,6346
682548.3,4213807.0200000005,413.45,6346
682548.8,4213807.87,413.44,6346
682549.53,4213807.32,413.40000000000003,6346
682550.38,4213807.85,413.40000000000003,6346
682550.31,4213807.3100000005,413.40000000000003,6346
682550.26,4213806.7700000005,413.40000000000003,6346
682551.13,4213807.2700000005,413.39,6346
682552.0,4213807.71,413.39,6346
682552.18,4213807.67,413.41,6346
682552.43,4213807.92,413.39,6346
682552.76,4213807.12,413.36,6346
682553.77,4213808.05,413.41,6346
682552.93,4213807.09,413.38,6346
682553.52,4213807.59,413.37,6346
682553.17,4213807.35,413.39,6346
682554.51,4213807.47,413.38,6346
682555.25,4213806.89,413.43,6346
682555.03,4213808.0200000005,413.38,6346
682554.31,4213806.96,413.38,6346
682555.03,4213807.04,413.36,6346
682554.28,4213807.6,413.37,6346
682554.39,4213807.16,413.38,6346
682556.55,4213806.83,413.37,6346
682555.79,4213807.43,413.37,6346
682555.46,4213808.11,413.40000000000003,6346
682556.21,4213807.53,413.44,6346
682556.25,4213808.05,413.40000000000003,6346
682556.51,4213807.7,413.45,6346
682555.4500000001,4213807.92,413.41,6346
682556.2000000001,4213807.36,413.43,6346
682557.0700000001,4213808.1,413.38,6346
682557.81,4213807.5200000005,413.45,6346
682556.96,4213806.95,413.37,6346
682557.71,4213807.16,413.37,6346
682556.91,4213807.78,413.43,6346
682557.87,4213806.83,413.36,6346
682556.93,4213806.8,413.37,6346
682558.56,4213806.94,413.38,6346
682559.4400000001,4213807.36,413.37,6346
682558.68,4213807.96,413.38,6346
682559.3200000001,4213807.64,413.37,6346
682559.15,4213807.95,413.40000000000003,6346
682560.21,4213806.76,413.36,6346
682560.06,4213807.05,413.42,6346
682560.86,4213807.3,413.43,6346
682560.08,4213807.92,413.38,6346
682560.98,4213807.43,413.36,6346
682560.24,4213807.99,413.37,6346
682560.28,4213807.51,413.42,6346
682560.56,4213807.17,413.42,6346
682559.85,4213807.71,413.40000000000003,6346
682559.89,4213807.4,413.38,6346
682560.64,4213806.83,413.38,6346
682561.06,4213808.0,413.38,6346
682561.8,4213807.41,413.37,6346
682562.29,4213807.97,413.39,6346
682561.72,4213806.87,413.35,6346
682562.54,4213806.83,413.42,6346
682563.81,4213806.78,413.39,6346
682563.05,4213807.38,413.37,6346
682562.65,4213807.95,413.38,6346
682563.39,4213807.37,413.41,6346
682563.68,4213807.95,413.38,6346
682563.43,4213807.64,413.37,6346
682564.54,4213807.8,413.42,6346
682565.3,4213807.21,413.36,6346
682564.14,4213806.79,413.41,6346
682564.47,4213807.34,413.42,6346
682564.42,4213807.78,413.42,6346
682566.18,4213807.5600000005,413.42,6346
682566.05,4213807.93,413.44,6346
682565.89,4213808.12,413.43,6346
682566.7000000001,4213807.5,413.41,6346
682566.31,4213807.7,413.41,6346
682566.89,4213806.97,413.72,6346
682566.8,4213807.34,413.44,6346
682567.47,4213806.78,413.93,6346
682567.52,4213807.5600000005,413.48,6346
682568.33,4213807.74,413.65000000000003,6346
682568.27,4213806.95,413.76,6346
682569.84,4213807.71,413.8,6346
682546.26,4213808.38,413.87,6346
682547.8,4213808.19,413.46000000000004,6346
682547.02,4213808.79,413.77,6346
682547.38,4213808.75,413.89,6346
682548.18,4213808.16,413.46000000000004,6346
682547.89,4213809.17,413.83,6346
682548.87,4213809.03,413.49,6346
682549.63,4213808.44,413.45,6346
682548.72,4213808.55,413.46000000000004,6346
682548.58,4213808.38,413.46000000000004,6346
682550.49,4213808.89,413.45,6346
682549.73,4213809.48,413.51,6346
682549.9400000001,4213809.42,413.48,6346
682550.6900000001,4213808.84,413.45,6346
682551.25,4213808.3,413.38,6346
682552.27,4213809.22,413.47,6346
682551.43,4213808.26,413.45,6346
682551.92,4213808.83,413.45,6346
682551.13,4213809.45,413.45,6346
682553.02,4213808.64,413.41,6346
682553.52,4213809.21,413.41,6346
682552.72,4213808.21,413.39,6346
682554.27,4213808.62,413.41,6346
682553.97,4213809.28,413.42,6346
682554.72,4213808.69,413.39,6346
682555.34,4213809.01,413.41,6346
682555.11,4213808.75,413.42,6346
682554.41,4213809.2700000005,413.41,6346
682553.97,4213809.05,413.43,6346
682554.7000000001,4213808.49,413.41,6346
682555.59,4213809.2700000005,413.40000000000003,6346
682556.33,4213808.69,413.39,6346
682556.13,4213808.39,413.40000000000003,6346
682555.8,4213808.23,413.41,6346
682557.93,4213808.55,413.37,6346
682557.16,4213809.15,413.41,6346
682557.0700000001,4213809.39,413.42,6346
682557.8200000001,4213808.8100000005,413.42,6346
682557.74,4213809.3,413.41,6346
682557.68,4213809.07,413.41,6346
682559.55,4213809.17,413.47,6346
682558.56,4213808.22,413.45,6346
682559.28,4213808.54,413.45,6346
682558.49,4213809.16,413.41,6346
682559.15,4213808.24,413.44,6346
682558.4500000001,4213808.76,413.46000000000004,6346
682558.42,4213808.51,413.44,6346
682560.31,4213808.58,413.39,6346
682560.78,4213809.16,413.39,6346
682561.54,4213808.5600000005,413.40000000000003,6346
682562.3,4213809.55,413.39,6346
682561.16,4213809.11,413.42,6346
682561.9,4213808.53,413.44,6346
682562.09,4213809.2,413.42,6346
682563.05,4213808.97,413.40000000000003,6346
682563.8,4213808.38,413.38,6346
682562.88,4213808.58,413.45,6346
682563.79,4213809.26,413.44,6346
682564.66,4213808.75,413.39,6346
682563.9,4213809.34,413.45,6346
682564.5700000001,4213809.09,413.39,6346
682565.3,4213808.51,413.43,6346
682565.14,4213809.44,413.40000000000003,6346
682564.27,4213809.34,413.45,6346
682565.0700000001,4213808.73,413.40000000000003,6346
682564.9,4213808.75,413.41,6346
682564.2000000001,4213809.28,413.44,6346
682565.42,4213808.15,413.44,6346
682566.13,4213809.48,413.41,6346
682566.72,4213808.19,413.43,6346
682565.92,4213808.8100000005,413.47,6346
682565.61,4213808.22,413.43,6346
682566.87,4213808.9,413.43,6346
682567.62,4213808.32,413.40000000000003,6346
682567.48,4213809.39,413.43,6346
682567.67,4213809.44,413.46000000000004,6346
682568.98,4213808.2,413.54,6346
682568.23,4213808.8,413.43,6346
682569.48,4213809.49,413.46000000000004,6346
682568.41,4213808.86,413.45,6346
682569.14,4213808.28,413.49,6346
682569.13,4213809.14,413.44,6346
682569.3200000001,4213808.63,413.48,6346
682568.89,4213808.68,413.45,6346
682568.17,4213809.21,413.44,6346
682570.22,4213808.91,413.5,6346
682570.93,4213808.34,413.79,6346
682570.97,4213809.2700000005,413.47,6346
682569.91,4213808.5200000005,413.58,6346
682570.55,4213809.53,413.46000000000004,6346
682569.84,4213809.54,413.45,6346
682571.6900000001,4213808.68,413.79,6346
682572.03,4213809.51,413.59000000000003,6346
682549.16,4213810.01,413.77,6346
682550.67,4213810.4,414.37,6346
682550.31,4213810.07,413.75,6346
682551.52,4213809.8,413.46000000000004,6346
682552.0,4213810.39,413.48,6346
682552.48,4213810.44,413.48,6346
682551.78,4213810.71,413.61,6346
682552.49,4213810.16,413.48,6346
682552.76,4213809.8,413.46000000000004,6346
682553.22,4213809.86,413.46000000000004,6346
682553.75,4213810.25,413.46000000000004,6346
682552.97,4213810.87,413.47,6346
682553.8200000001,4213809.89,413.45,6346
682553.72,4213809.79,413.45,6346
682553.23,4213809.6,413.48,6346
682554.09,4213810.43,413.48,6346
682554.85,4213809.84,413.40000000000003,6346
682554.88,4213810.93,413.48,6346
682554.55,4213809.63,413.44,6346
682556.4,4213809.74,413.39,6346
682555.64,4213810.34,413.42,6346
682555.5700000001,4213810.5600000005,413.45,6346
682556.33,4213809.97,413.43,6346
682557.3200000001,4213810.92,413.42,6346
682558.0700000001,4213810.33,413.41,6346
682557.7000000001,4213809.78,413.42,6346
682556.91,4213810.4,413.43,6346
682558.8200000001,4213809.74,413.40000000000003,6346
682559.27,4213810.34,413.39,6346
682558.51,4213810.94,413.41,6346
682558.92,4213810.86,413.44,6346
682559.24,4213810.79,413.42,6346
682560.03,4213809.75,413.39,6346
682560.8,4213810.73,413.42,6346
682559.67,4213810.28,413.43,6346
682560.41,4213809.7,413.43,6346
682560.51,4213810.44,413.42,6346
682559.77,4213810.63,413.42,6346
682559.9400000001,4213810.2700000005,413.43,6346
682561.54,4213810.14,413.46000000000004,6346
682562.39,4213810.5200000005,413.48,6346
682561.3,4213809.82,413.45,6346
682562.3200000001,4213810.84,413.46000000000004,6346
682561.54,4213810.95,413.43,6346
682562.3,4213810.39,413.46000000000004,6346
682563.15,4213809.94,413.40000000000003,6346
682563.0700000001,4213810.26,413.45,6346
682563.8200000001,4213809.67,413.42,6346
682563.54,4213810.68,413.47,6346
682563.03,4213809.83,413.39,6346
682564.64,4213810.65,413.40000000000003,6346
682564.35,4213810.0600000005,413.41,6346
682565.38,4213810.07,413.44,6346
682566.72,4213809.99,413.42,6346
682565.96,4213810.58,413.46000000000004,6346
682566.18,4213810.6,413.41,6346
682568.0,4213810.66,413.42,6346
682566.93,4213810.0200000005,413.40000000000003,6346
682567.55,4213810.39,413.42,6346
682567.68,4213809.86,413.41,6346
682568.75,4213810.07,413.44,6346
682569.46,4213810.47,413.40000000000003,6346
682568.33,4213809.7700000005,413.45,6346
682569.4,4213810.75,413.43,6346
682568.99,4213810.83,413.43,6346
682568.27,4213809.86,413.40000000000003,6346
682569.12,4213810.6,413.41,6346
682568.33,4213810.68,413.43,6346
682569.09,4213810.11,413.46000000000004,6346
682570.22,4213809.87,413.45,6346
682570.14,4213810.17,413.46000000000004,6346
682570.88,4213809.58,413.46000000000004,6346
682570.4500000001,4213810.76,413.47,6346
682569.81,4213810.21,413.46000000000004,6346
682570.63,4213809.59,413.45,6346
682569.84,4213810.0600000005,413.45,6346
682571.28,4213810.86,413.46000000000004,6346
682572.02,4213810.28,413.47,6346
682571.25,4213810.13,413.48,6346
682572.11,4213810.94,413.49,6346
682572.87,4213810.63,413.47,6346
682572.97,4213810.82,413.48,6346
682573.66,4213810.25,413.86,6346
682572.88,4213810.85,413.49,6346
682572.78,4213810.7700000005,413.48,6346
682575.06,4213810.53,413.94,6346
682574.12,4213810.75,413.52,6346
682576.2000000001,4213810.96,413.89,6346
682551.21,4213810.99,413.81,6346
682551.68,4213811.03,413.88,6346
682552.14,4213811.49,413.81,6346
682552.56,4213811.6,413.83,6346
682553.35,4213811.01,413.48,6346
682553.3200000001,4213812.13,413.82,6346
682553.29,4213812.32,413.8,6346
682553.96,4213811.75,414.40000000000003,6346
682554.12,4213811.53,413.5,6346
682554.8200000001,4213811.15,413.49,6346
682555.33,4213811.63,413.49,6346
682554.5,4213812.26,413.81,6346
682555.8200000001,4213812.08,413.51,6346
682556.5700000001,4213811.5,413.47,6346
682556.12,4213811.0200000005,413.48,6346
682557.75,4213811.53,413.42,6346
682556.99,4213812.13,413.49,6346
682557.43,4213812.03,413.49,6346
682558.18,4213811.44,413.45,6346
682558.14,4213812.29,413.5,6346
682558.14,4213811.85,413.44,6346
682557.86,4213811.84,413.5,6346
682557.17,4213812.36,413.49,6346
682559.3,4213811.9,413.44,6346
682558.9400000001,4213811.67,413.45,6346
682558.55,4213811.32,413.44,6346
682560.05,4213811.3100000005,413.42,6346
682560.88,4213811.72,413.42,6346
682560.12,4213812.3100000005,413.43,6346
682559.73,4213811.05,413.44,6346
682560.84,4213812.01,413.44,6346
682561.02,4213811.79,413.44,6346
682559.96,4213811.13,413.42,6346
682560.79,4213811.5200000005,413.44,6346
682561.63,4213811.12,413.41,6346
682561.58,4213811.43,413.43,6346
682561.96,4213811.92,413.45,6346
682561.83,4213811.17,413.44,6346
682563.15,4213811.8100000005,413.44,6346
682563.88,4213811.23,413.47,6346
682563.6900000001,4213812.36,413.44,6346
682562.75,4213811.3,413.45,6346
682565.21,4213811.17,413.41,6346
682564.4400000001,4213811.7700000005,413.5,6346
682563.9400000001,4213812.35,413.45,6346
682564.6900000001,4213811.7700000005,413.49,6346
682565.17,4213812.25,413.48,6346
682563.9500000001,4213812.39,413.47,6346
682566.51,4213811.82,413.43,6346
682565.4400000001,4213811.18,413.44,6346
682565.96,4213811.62,413.49,6346
682567.26,4213811.24,413.42,6346
682567.93,4213811.66,413.43,6346
682567.18,4213812.25,413.42,6346
682566.76,4213811.01,413.43,6346
682567.91,4213811.91,413.45,6346
682567.71,4213811.66,413.43,6346
682567.02,4213812.19,413.5,6346
682568.7000000001,4213811.0600000005,413.43,6346
682568.65,4213811.33,413.49,6346
682568.86,4213812.0,413.44,6346
682568.42,4213811.9,413.44,6346
682569.79,4213812.0200000005,413.5,6346
682570.54,4213811.44,413.45,6346
682569.66,4213811.37,413.44,6346
682570.67,4213812.36,413.49,6346
682570.58,4213812.09,413.45,6346
682572.11,4213811.23,413.46000000000004,6346
682571.36,4213811.82,413.43,6346
682571.5,4213811.98,413.44,6346
682572.23,4213811.4,413.49,6346
682571.24,4213812.08,413.45,6346
682572.0700000001,4213811.46,413.51,6346
682572.08,4213811.3,413.49,6346
682571.37,4213811.83,413.46000000000004,6346
682571.34,4213811.5200000005,413.45,6346
682572.89,4213812.26,413.44,6346
682573.63,4213811.69,413.49,6346
682573.34,4213811.37,413.47,6346
682572.54,4213812.0,413.5,6346
682574.37,4213811.1,413.48,6346
682574.8200000001,4213811.75,413.49,6346
682574.06,4213812.35,413.5,6346
682574.76,4213812.12,413.51,6346
682575.52,4213811.17,413.93,6346
682576.54,4213812.28,413.5,6346
682575.5,4213811.53,413.54,6346
682575.72,4213812.19,413.52,6346
682577.93,4213812.33,413.76,6346
682555.0,4213812.68,414.07,6346
682556.51,4213813.54,413.93,6346
682556.23,4213812.72,413.51,6346
682555.43,4213813.32,413.84000000000003,6346
682555.88,4213813.2,414.0,6346
682556.6900000001,4213812.61,413.51,6346
682556.5700000001,4213813.05,413.62,6346
682556.49,4213812.87,413.54,6346
682556.98,4213813.67,414.01,6346
682557.79,4213813.07,413.49,6346
682557.36,4213812.91,413.5,6346
682557.75,4213812.8,413.52,6346
682557.35,4213812.45,413.51,6346
682558.6,4213813.5,413.49,6346
682558.59,4213813.76,413.52,6346
682559.58,4213813.79,413.5,6346
682558.63,4213813.48,413.5,6346
682558.54,4213812.49,413.48,6346
682559.36,4213812.9,413.49,6346
682559.34,4213813.18,413.5,6346
682559.3200000001,4213812.96,413.51,6346
682560.9,4213813.5600000005,413.51,6346
682560.09,4213812.59,413.44,6346
682560.37,4213813.17,413.5,6346
682560.0,4213812.44,413.42,6346
682562.18,4213813.54,413.47,6346
682562.46,4213813.51,413.47,6346
682561.65,4213812.98,413.47,6346
682562.4,4213812.4,413.49,6346
682561.16,4213812.55,413.47,6346
682563.59,4213813.49,413.48,6346
682562.9400000001,4213812.95,413.45,6346
682563.1900000001,4213812.93,413.51,6346
682564.27,4213813.57,413.47,6346
682565.01,4213812.99,413.46000000000004,6346
682564.38,4213812.87,413.46000000000004,6346
682565.65,4213813.45,413.46000000000004,6346
682565.67,4213813.66,413.48,6346
682566.1900000001,4213813.57,413.47,6346
682565.75,4213812.41,413.49,6346
682566.41,4213812.85,413.45,6346
682566.42,4213813.07,413.46000000000004,6346
682567.56,4213813.76,413.46000000000004,6346
682567.15,4213812.5,413.49,6346
682568.0700000001,4213812.63,413.46000000000004,6346
682567.28,4213813.25,413.46000000000004,6346
682567.68,4213812.45,413.45,6346
682566.9500000001,4213813.01,413.51,6346
682569.08,4213813.6,413.52,6346
682569.26,4213813.72,413.53000000000003,6346
682568.3,4213813.19,413.51,6346
682569.05,4213812.6,413.46000000000004,6346
682570.59,4213812.41,413.47,6346
682569.84,4213813.0,413.46000000000004,6346
682570.01,4213813.14,413.47,6346
682570.74,4213812.5600000005,413.52,6346
682570.96,4213813.24,413.46000000000004,6346
682569.61,4213813.3,413.47,6346
682570.43,4213812.69,413.49,6346
682569.9500000001,4213812.89,413.46000000000004,6346
682569.8200000001,4213812.67,413.45,6346
682571.4,4213813.43,413.46000000000004,6346
682572.15,4213812.84,413.46000000000004,6346
682571.74,4213812.62,413.47,6346
682572.56,4213813.54,413.44,6346
682572.6900000001,4213813.78,413.45,6346
682573.31,4213812.94,413.46000000000004,6346
682573.27,4213813.28,413.46000000000004,6346
682573.4400000001,4213813.22,413.47,6346
682575.05,4213813.45,413.48,6346
682574.13,4213813.44,413.48,6346
682574.02,4213812.7,413.52,6346
682574.92,4213812.8100000005,413.51,6346
682574.1900000001,4213812.66,413.46000000000004,6346
682576.13,4213813.6,413.51,6346
682576.48,4213813.49,413.54,6346
682576.34,4213813.44,413.54,6346
682575.79,4213812.86,413.52,6346
682577.14,4213813.68,413.55,6346
682577.63,4213812.41,413.62,6346
682576.88,4213813.01,413.52,6346
682577.22,4213812.9,413.53000000000003,6346
682577.9400000001,4213813.0600000005,413.56,6346
682577.08,4213812.88,413.52,6346
682578.23,4213813.66,413.53000000000003,6346
682579.36,4213813.8100000005,413.54,6346
682578.97,4213813.08,413.65000000000003,6346
682579.92,4213813.49,413.66,6346
682580.75,4213813.68,413.76,6346
682557.79,4213814.1,413.93,6346
682557.8,4213814.35,413.89,6346
682559.29,4213814.75,414.47,6346
682558.67,4213814.43,414.40000000000003,6346
682560.16,4213814.14,413.55,6346
682560.66,4213814.73,413.54,6346
682560.97,4213814.67,413.52,6346
682560.52,4213814.5,413.53000000000003,6346
682561.42,4213814.14,413.52,6346
682561.71,4213814.09,413.54,6346
682562.0,4213814.73,413.55,6346
682561.26,4213813.94,413.52,6346
682562.76,4213814.74,413.54,6346
682563.52,4213814.15,413.48,6346
682563.37,4213815.23,413.54,6346
682562.8,4213814.11,413.47,6346
682564.89,4213814.04,413.45,6346
682564.13,4213814.64,413.47,6346
682564.18,4213814.82,413.54,6346
682564.93,4213814.24,413.47,6346
682564.89,4213815.11,413.55,6346
682564.71,4213814.68,413.49,6346
682566.08,4213814.93,413.46000000000004,6346
682566.48,4213813.87,413.48,6346
682565.6900000001,4213814.49,413.48,6346
682565.46,4213814.12,413.47,6346
682566.8200000001,4213814.34,413.46000000000004,6346
682567.5700000001,4213814.78,413.49,6346
682567.77,4213814.88,413.55,6346
682567.17,4213815.14,413.5,6346
682567.99,4213814.53,413.5,6346
682568.33,4213814.19,413.47,6346
682569.16,4213815.17,413.51,6346
682568.52,4213814.3,413.47,6346
682569.36,4213814.49,413.5,6346
682568.5700000001,4213815.11,413.51,6346
682568.8,4213813.91,413.5,6346
682569.3,4213815.01,413.51,6346
682569.92,4213814.59,413.46000000000004,6346
682570.66,4213814.01,413.48,6346
682570.15,4213813.87,413.53000000000003,6346
682570.06,4213814.44,413.52,6346
682570.81,4213813.87,413.47,6346
682571.79,4213814.13,413.47,6346
682571.03,4213814.73,413.54,6346
682571.03,4213815.04,413.54,6346
682571.78,4213814.45,413.49,6346
682571.96,4213814.34,413.49,6346
682571.22,4213814.89,413.53000000000003,6346
682572.81,4213815.19,413.55,6346
682573.5700000001,4213814.6,413.5,6346
682572.52,4213813.87,413.52,6346
682573.3200000001,4213814.07,413.53000000000003,6346
682572.53,4213814.69,413.51,6346
682574.31,4213814.0200000005,413.48,6346
682574.61,4213814.8,413.51,6346
682574.25,4213815.23,413.49,6346
682574.99,4213814.65,413.55,6346
682574.85,4213814.55,413.49,6346
682574.1,4213815.11,413.5,6346
682575.37,4213814.2,413.5,6346
682575.74,4213814.07,413.48,6346
682576.35,4213814.3100000005,413.49,6346
682575.55,4213814.93,413.55,6346
682575.59,4213814.0,413.49,6346
682576.4400000001,4213815.22,413.56,6346
682576.75,4213814.82,413.52,6346
682577.5,4213814.23,413.54,6346
682577.7000000001,4213815.07,413.51,6346
682577.31,4213814.65,413.48,6346
682577.84,4213814.17,413.56,6346
682577.13,4213814.7,413.51,6346
682579.21,4213813.88,413.56,6346
682578.4500000001,4213814.47,413.55,6346
682578.4400000001,4213814.66,413.55,6346
682579.18,4213814.07,413.55,6346
682579.1900000001,4213814.92,413.57,6346
682578.13,4213814.04,413.54,6346
682579.97,4213815.01,413.59000000000003,6346
682580.71,4213814.43,413.58,6346
682579.99,4213814.29,413.58,6346
682580.88,4213814.97,413.57,6346
682580.68,4213814.74,413.56,6346
682580.71,4213814.43,413.56,6346
682579.99,4213814.97,413.56,6346
682579.6,4213814.98,413.55,6346
682580.37,4213814.4,413.56,6346
682582.2000000001,4213814.09,414.01,6346
682581.5,4213814.67,413.57,6346
682581.88,4213814.7,413.59000000000003,6346
682583.24,4213815.1,414.28000000000003,6346
682582.5700000001,4213814.12,414.03000000000003,6346
682583.16,4213814.42,413.99,6346
682582.42,4213815.03,413.6,6346
682582.47,4213815.19,413.58,6346
682584.9,4213815.0600000005,413.94,6346
682559.84,4213815.33,414.01,6346
682560.18,4213815.26,413.85,6346
682560.38,4213815.97,413.89,6346
682561.23,4213815.91,413.91,6346
682562.02,4213815.32,413.56,6346
682561.81,4213816.43,413.90000000000003,6346
682561.11,4213815.37,414.39,6346
682561.89,4213816.58,413.94,6346
682562.61,4213815.83,413.56,6346
682562.68,4213815.99,413.59000000000003,6346
682563.43,4213815.4,413.55,6346
682563.21,4213816.37,414.38,6346
682564.58,4213816.09,413.57,6346
682565.3,4213816.5600000005,413.56,6346
682564.1,4213815.73,413.56,6346
682563.98,4213815.24,413.54,6346
682565.33,4213815.5,413.5,6346
682566.05,4213815.97,413.55,6346
682565.54,4213816.62,413.58,6346
682566.29,4213816.04,413.56,6346
682566.4,4213816.08,413.48,6346
682565.66,4213816.63,413.56,6346
682565.55,4213816.37,413.58,6346
682566.36,4213815.75,413.53000000000003,6346
682566.81,4213815.38,413.49,6346
682567.67,4213816.34,413.52,6346
682567.04,4213815.45,413.51,6346
682567.77,4213815.74,413.52,6346
682566.98,4213816.35,413.54,6346
682567.14,4213815.5200000005,413.5,6346
682567.78,4213816.15,413.52,6346
682568.43,4213815.75,413.5,6346
682569.52,4213815.91,413.5,6346
682568.75,4213816.51,413.52,6346
682569.53,4213816.21,413.52,6346
682568.98,4213816.58,413.52,6346
682568.54,4213815.58,413.49,6346
682570.27,4213815.32,413.47,6346
682570.28,4213815.62,413.5,6346
682570.9400000001,4213815.94,413.51,6346
682570.14,4213816.5600000005,413.51,6346
682570.47,4213815.46,413.49,6346
682569.73,4213816.01,413.52,6346
682571.33,4213816.35,413.53000000000003,6346
682572.0700000001,4213815.7700000005,413.53000000000003,6346
682572.33,4213816.58,413.52,6346
682571.73,4213815.32,413.54,6346
682573.08,4213815.99,413.58,6346
682572.76,4213816.4,413.52,6346
682573.5,4213815.82,413.55,6346
682573.85,4213815.39,413.51,6346
682574.52,4213816.5600000005,413.59000000000003,6346
682574.76,4213815.55,413.54,6346
682573.97,4213816.17,413.57,6346
682574.89,4213816.48,413.56,6346
682575.02,4213816.29,413.58,6346
682575.26,4213815.98,413.51,6346
682576.0,4213815.4,413.57,6346
682576.18,4213816.26,413.52,6346
682576.21,4213816.4,413.53000000000003,6346
682576.38,4213816.04,413.52,6346
682575.64,4213816.59,413.52,6346
682575.7000000001,4213815.87,413.51,6346
682576.52,4213815.26,413.55,6346
682575.72,4213815.76,413.51,6346
682576.93,4213815.66,413.57,6346
682576.9400000001,4213815.82,413.56,6346
682577.7000000001,4213815.24,413.51,6346
682577.6,4213816.17,413.53000000000003,6346
682577.86,4213816.57,413.55,6346
682578.48,4213816.17,413.53000000000003,6346
682579.22,4213815.6,413.53000000000003,6346
682579.22,4213816.46,413.52,6346
682578.4,4213815.54,413.52,6346
682579.39,4213816.09,413.53000000000003,6346
682578.65,4213816.65,413.54,6346
682578.23,4213816.58,413.54,6346
682579.04,4213815.97,413.53000000000003,6346
682579.28,4213815.5,413.54,6346
682578.56,4213816.04,413.52,6346
682580.74,4213815.2700000005,413.58,6346
682579.98,4213815.86,413.53000000000003,6346
682579.65,4213816.45,413.54,6346
682580.4,4213815.86,413.53000000000003,6346
682580.84,4213816.2700000005,413.55,6346
682580.12,4213815.54,413.53000000000003,6346
682579.86,4213815.35,413.57,6346
682581.84,4213816.25,413.57,6346
682581.14,4213815.28,413.59000000000003,6346
682581.63,4213815.65,413.56,6346
682582.1900000001,4213816.0600000005,413.58,6346
682582.21,4213815.89,413.6,6346
682581.7000000001,4213815.7700000005,413.57,6346
682582.59,4213815.66,413.59000000000003,6346
682583.41,4213816.04,413.6,6346
682582.65,4213816.64,413.6,6346
682583.4500000001,4213816.22,413.6,6346
682583.4400000001,4213815.92,413.62,6346
682582.7000000001,4213816.48,413.63,6346
682584.14,4213815.45,413.8,6346
682584.1900000001,4213815.63,413.67,6346
682584.49,4213816.14,413.62,6346
682584.93,4213816.5200000005,413.63,6346
682585.3200000001,4213816.2700000005,413.62,6346
682586.03,4213815.69,413.98,6346
682586.25,4213816.42,413.81,6346
682585.2000000001,4213815.53,414.18,6346
682586.3200000001,4213816.54,413.75,6346
682585.72,4213816.47,413.65000000000003,6346
682563.06,4213817.26,413.88,6346
682563.84,4213816.67,413.59000000000003,6346
682564.42,4213817.18,414.46000000000004,6346
682564.67,4213817.23,414.55,6346
682566.18,4213817.5,413.6,6346
682566.1900000001,4213816.97,413.58,6346
682565.38,4213817.59,413.72,6346
682565.58,4213817.83,413.77,6346
682566.29,4213817.28,413.57,6346
682566.93,4213816.92,413.6,6346
682567.99,4213817.11,413.58,6346
682567.23,4213817.7,413.57,6346
682567.28,4213817.96,413.59000000000003,6346
682568.03,4213817.38,413.6,6346
682567.51,4213817.68,413.6,6346
682567.04,4213816.72,413.54,6346
682568.78,4213816.79,413.55,6346
682569.36,4213817.18,413.55,6346
682568.55,4213817.8,413.6,6346
682568.25,4213817.13,413.56,6346
682569.83,4213817.5200000005,413.54,6346
682570.58,4213816.93,413.54,6346
682570.81,4213817.7700000005,413.54,6346
682571.5700000001,4213817.17,413.54,6346
682571.27,4213817.5600000005,413.55,6346
682572.02,4213816.98,413.54,6346
682572.39,4213817.41,413.55,6346
682571.59,4213818.03,413.58,6346
682573.03,4213817.72,413.56,6346
682573.77,4213817.14,413.55,6346
682573.1900000001,4213816.79,413.52,6346
682573.26,4213817.71,413.53000000000003,6346
682573.61,4213817.35,413.56,6346
682572.91,4213817.87,413.55,6346
682573.8,4213816.74,413.54,6346
682574.67,4213817.44,413.53000000000003,6346
682573.9,4213818.04,413.55,6346
682574.71,4213817.57,413.55,6346
682575.22,4213818.04,413.56,6346
682574.9,4213817.15,413.53000000000003,6346
682574.16,4213817.71,413.56,6346
682574.0700000001,4213817.09,413.54,6346
682574.33,4213816.8100000005,413.59000000000003,6346
682575.41,4213816.85,413.61,6346
682576.24,4213817.92,413.56,6346
682575.46,4213816.99,413.57,6346
682576.01,4213817.42,413.6,6346
682576.6,4213817.8100000005,413.53000000000003,6346
682576.4500000001,4213817.63,413.6,6346
682576.99,4213817.34,413.53000000000003,6346
682577.74,4213816.76,413.53000000000003,6346
682577.6900000001,4213817.65,413.61,6346
682576.81,4213816.79,413.55,6346
682577.9,4213817.21,413.56,6346
682577.17,4213817.76,413.59000000000003,6346
682577.41,4213817.19,413.53000000000003,6346
682577.15,4213817.1,413.54,6346
682578.47,4213817.05,413.54,6346
682578.15,4213817.62,413.57,6346
682578.91,4213817.03,413.54,6346
682579.26,4213817.51,413.55,6346
682579.61,4213817.99,413.57,6346
682580.34,4213817.42,413.6,6346
682580.05,4213816.9,413.56,6346
682581.1,4213816.83,413.55,6346
682581.89,4213817.23,413.57,6346
682581.13,4213817.83,413.56,6346
682581.2000000001,4213817.98,413.63,6346
682581.9500000001,4213817.39,413.56,6346
682582.1,4213818.01,413.63,6346
682581.9400000001,4213817.04,413.58,6346
682581.37,4213816.68,413.53000000000003,6346
682583.09,4213818.0200000005,413.58,6346
682582.7000000001,4213816.8100000005,413.6,6346
682583.6900000001,4213816.76,413.61,6346
682582.9,4213817.39,413.58,6346
682583.3,4213817.74,413.59000000000003,6346
682583.84,4213817.43,413.56,6346
682584.58,4213816.85,413.61,6346
682584.76,4213817.61,413.61,6346
682584.86,4213817.7,413.63,6346
682584.97,4213817.03,413.61,6346
682584.22,4213817.59,413.56,6346
682584.11,4213817.13,413.64,6346
682585.52,4213817.0200000005,413.6,6346
682585.6,4213817.12,413.64,6346
682586.18,4213817.4,413.63,6346
682585.38,4213818.03,413.64,6346
682586.41,4213817.9,413.64,6346
682586.51,4213817.22,413.62,6346
682586.9500000001,4213817.76,413.62,6346
682587.68,4213817.17,413.86,6346
682587.93,4213817.85,413.64,6346
682586.93,4213816.79,413.89,6346
682587.81,4213817.75,413.66,6346
682587.21,4213817.54,413.63,6346
682587.11,4213817.37,413.65000000000003,6346
682588.61,4213817.2700000005,414.2,6346
682588.54,4213817.54,413.84000000000003,6346
682589.4400000001,4213817.53,414.1,6346
682565.39,4213818.09,413.96000000000004,6346
682566.36,4213818.3100000005,414.53000000000003,6346
682566.49,4213818.55,413.94,6346
682567.55,4213819.2700000005,413.95,6346
682567.76,4213818.43,413.62,6346
682566.92,4213819.0600000005,413.93,6346
682567.85,4213819.49,414.07,6346
682568.06,4213818.87,413.78000000000003,6346
682568.33,4213818.68,413.61,6346
682569.08,4213818.1,413.6,6346
682569.29,4213818.96,413.61,6346
682568.92,4213819.33,414.46000000000004,6346
682569.13,4213818.29,413.6,6346
682568.78,4213818.32,413.62,6346
682570.05,4213818.36,413.59000000000003,6346
682570.8,4213819.47,413.63,6346
682569.77,4213818.73,413.61,6346
682570.51,4213818.15,413.61,6346
682570.79,4213818.66,413.64,6346
682570.0,4213819.2700000005,413.63,6346
682570.8200000001,4213819.44,413.65000000000003,6346
682570.8,4213819.01,413.62,6346
682571.54,4213818.89,413.61,6346
682572.29,4213818.3,413.54,6346
682572.38,4213819.23,413.6,6346
682571.9500000001,4213819.37,413.62,6346
682571.65,4213818.92,413.61,6346
682572.21,4213818.4,413.57,6346
682571.52,4213818.92,413.62,6346
682573.14,4213818.63,413.58,6346
682572.46,4213819.32,413.61,6346
682573.22,4213818.74,413.56,6346
682573.63,4213819.28,413.59000000000003,6346
682573.42,4213818.26,413.56,6346
682572.68,4213818.82,413.58,6346
682572.4500000001,4213818.32,413.56,6346
682574.76,4213819.08,413.57,6346
682573.96,4213818.15,413.61,6346
682574.43,4213818.66,413.55,6346
682574.9400000001,4213819.43,413.59000000000003,6346
682574.98,4213819.03,413.58,6346
682575.5,4213818.5,413.57,6346
682576.1900000001,4213818.84,413.58,6346
682575.42,4213819.43,413.6,6346
682575.91,4213819.37,413.6,6346
682576.67,4213818.78,413.58,6346
682576.42,4213818.32,413.56,6346
682575.6900000001,4213818.88,413.6,6346
682575.79,4213818.41,413.58,6346
682576.9500000001,4213818.24,413.54,6346
682577.4,4213818.2,413.62,6346
682577.68,4213818.75,413.58,6346
682576.9,4213819.37,413.56,6346
682578.12,4213819.16,413.58,6346
682578.86,4213818.58,413.59000000000003,6346
682578.46,4213818.14,413.6,6346
682580.37,4213818.42,413.54,6346
682579.61,4213819.0200000005,413.62,6346
682579.68,4213819.16,413.62,6346
682580.4400000001,4213818.57,413.58,6346
682580.5,4213819.26,413.64,6346
682581.6,4213819.18,413.57,6346
682582.34,4213818.6,413.58,6346
682581.3,4213818.64,413.61,6346
682581.99,4213819.26,413.58,6346
682582.2000000001,4213818.25,413.63,6346
682583.24,4213818.79,413.62,6346
682582.49,4213819.39,413.6,6346
682582.63,4213819.45,413.59000000000003,6346
682583.36,4213818.87,413.66,6346
682583.48,4213818.14,413.56,6346
682582.74,4213818.7,413.57,6346
682582.49,4213818.35,413.66,6346
682584.01,4213818.2,413.57,6346
682584.11,4213818.29,413.59000000000003,6346
682584.58,4213818.66,413.59000000000003,6346
682583.78,4213819.29,413.64,6346
682584.77,4213819.37,413.66,6346
682584.97,4213818.98,413.6,6346
682585.4500000001,4213818.93,413.6,6346
682586.1900000001,4213818.35,413.64,6346
682586.41,4213819.04,413.57,6346
682586.33,4213819.28,413.61,6346
682586.3200000001,4213818.86,413.62,6346
682585.58,4213819.42,413.61,6346
682585.58,4213818.76,413.61,6346
682586.39,4213818.15,413.66,6346
682585.6900000001,4213818.44,413.61,6346
682587.17,4213818.44,413.63,6346
682587.0700000001,4213818.71,413.65000000000003,6346
682587.81,4213818.12,413.64,6346
682587.9,4213818.7700000005,413.66,6346
682587.12,4213819.39,413.63,6346
682587.0700000001,4213818.3,413.65000000000003,6346
682587.52,4213818.95,413.68,6346
682588.27,4213819.28,413.66,6346
682589.01,4213818.7,413.67,6346
682588.7000000001,4213818.14,413.67,6346
682589.25,4213818.73,413.66,6346
682588.5,4213819.29,413.67,6346
682589.64,4213818.14,414.53000000000003,6346
682590.27,4213818.61,413.76,6346
682589.52,4213819.2,413.68,6346
682589.81,4213819.03,413.7,6346
682590.51,4213818.46,414.0,6346
682590.38,4213819.36,413.66,6346
682590.63,4213819.38,413.71000000000004,6346
682591.12,4213818.74,414.12,6346
682591.86,4213819.16,414.53000000000003,6346
682568.46,4213819.57,414.15000000000003,6346
682568.23,4213819.91,413.96000000000004,6346
682569.16,4213819.9,414.03000000000003,6346
682569.93,4213820.07,414.58,6346
682570.74,4213820.44,414.58,6346
682570.86,4213820.51,414.48,6346
682571.62,4213819.82,413.63,6346
682571.71,4213819.91,413.63,6346
682572.04,4213820.53,413.66,6346
682572.24,4213820.8,413.69,6346
682572.05,4213820.67,413.66,6346
682572.52,4213820.83,413.64,6346
682573.26,4213820.25,413.63,6346
682572.84,4213819.9,413.63,6346
682573.46,4213820.55,413.66,6346
682572.56,4213820.85,413.67,6346
682573.36,4213820.25,413.66,6346
682572.9400000001,4213820.2700000005,413.64,6346
682572.8,4213820.1,413.65000000000003,6346
682574.01,4213819.67,413.58,6346
682574.66,4213820.03,413.59000000000003,6346
682573.9,4213820.62,413.66,6346
682574.42,4213820.53,413.66,6346
682575.17,4213819.95,413.6,6346
682574.2000000001,4213819.99,413.66,6346
682574.16,4213819.64,413.58,6346
682575.87,4213820.91,413.66,6346
682576.62,4213820.32,413.61,6346
682576.1,4213819.99,413.59000000000003,6346
682575.31,4213820.6,413.66,6346
682576.51,4213820.34,413.6,6346
682575.84,4213820.68,413.64,6346
682575.63,4213820.34,413.61,6346
682577.37,4213819.74,413.57,6346
682578.1,4213820.21,413.58,6346
682577.33,4213820.8,413.63,6346
682577.3200000001,4213819.73,413.58,6346
682578.85,4213819.62,413.6,6346
682578.1900000001,4213820.33,413.61,6346
682578.9400000001,4213819.75,413.59000000000003,6346
682578.91,4213820.51,413.62,6346
682578.89,4213820.45,413.61,6346
682580.11,4213820.35,413.61,6346
682580.85,4213819.7700000005,413.65000000000003,6346
682579.71,4213819.89,413.59000000000003,6346
682580.53,4213820.36,413.63,6346
682579.78,4213820.92,413.61,6346
682581.73,4213819.98,413.63,6346
682580.98,4213820.57,413.62,6346
682581.13,4213820.61,413.63,6346
682581.87,4213820.03,413.67,6346
682582.18,4213820.53,413.68,6346
682581.27,4213819.8100000005,413.64,6346
682583.18,4213820.7,413.67,6346
682582.99,4213819.91,413.6,6346
682583.9400000001,4213820.12,413.6,6346
682584.6900000001,4213819.5200000005,413.65000000000003,6346
682584.9,4213820.23,413.61,6346
682584.12,4213820.83,413.67,6346
682584.83,4213820.45,413.64,6346
682584.83,4213819.98,413.61,6346
682584.09,4213820.54,413.61,6346
682583.96,4213819.98,413.61,6346
682584.26,4213819.51,413.63,6346
682585.65,4213819.63,413.65000000000003,6346
682585.5700000001,4213819.87,413.68,6346
682586.31,4213820.0200000005,413.63,6346
682585.51,4213820.64,413.65000000000003,6346
682586.77,4213820.45,413.68,6346
682587.52,4213819.87,413.62,6346
682588.0,4213820.4,413.64,6346
682587.58,4213820.78,413.72,6346
682587.75,4213819.85,413.61,6346
682587.02,4213820.4,413.67,6346
682588.77,4213819.79,413.61,6346
682588.3200000001,4213820.2,413.65000000000003,6346
682589.06,4213819.61,413.69,6346
682588.77,4213820.62,413.65000000000003,6346
682589.74,4213820.88,413.65000000000003,6346
682590.47,4213820.3,413.71000000000004,6346
682589.5700000001,4213819.99,413.69,6346
682590.41,4213820.7,413.66,6346
682589.83,4213820.63,413.64,6346
682590.66,4213820.01,413.7,6346
682590.1900000001,4213820.22,413.72,6346
682591.22,4213819.72,413.69,6346
682591.24,4213820.5600000005,413.72,6346
682591.17,4213820.14,413.7,6346
682590.9,4213819.69,413.71000000000004,6346
682592.01,4213819.96,413.7,6346
682591.41,4213820.64,413.72,6346
682592.16,4213820.0600000005,413.71000000000004,6346
682592.0700000001,4213820.9,413.7,6346
682593.1900000001,4213820.65,413.74,6346
682593.59,4213819.66,414.34000000000003,6346
682592.87,4213820.2700000005,413.7,6346
682594.97,4213820.16,414.08,6346
682594.25,4213820.75,413.75,6346
682595.31,4213820.76,413.89,6346
682571.73,4213821.42,413.96000000000004,6346
682572.34,4213821.82,413.99,6346
682571.2000000001,4213821.16,413.99,6346
682573.14,4213821.21,413.67,6346
682572.88,4213821.71,414.05,6346
682573.68,4213821.11,413.66,6346
682573.63,4213821.86,414.42,6346
682572.74,4213821.1,413.71000000000004,6346
682574.36,4213822.08,413.78000000000003,6346
682575.12,4213821.49,413.69,6346
682574.52,4213821.22,413.67,6346
682574.89,4213821.5600000005,413.65000000000003,6346
682574.4400000001,4213821.73,413.69,6346
682576.5700000001,4213821.4,413.67,6346
682575.8,4213822.0,413.68,6346
682575.92,4213822.11,413.68,6346
682575.71,4213820.94,413.65000000000003,6346
682577.86,4213822.1,413.68,6346
682576.68,4213821.51,413.65000000000003,6346
682577.43,4213820.93,413.6,6346
682577.3200000001,4213821.75,413.68,6346
682577.62,4213822.01,413.69,6346
682578.61,4213821.5200000005,413.62,6346
682579.35,4213820.94,413.63,6346
682579.47,4213821.75,413.63,6346
682578.12,4213821.13,413.63,6346
682579.03,4213821.48,413.63,6346
682578.31,4213822.03,413.69,6346
682580.22,4213821.16,413.67,6346
682579.63,4213821.78,413.67,6346
682580.38,4213821.2,413.64,6346
682580.6,4213821.78,413.63,6346
682581.68,4213821.88,413.66,6346
682581.39,4213821.16,413.62,6346
682581.87,4213822.2,413.66,6346
682582.42,4213821.29,413.64,6346
682583.37,4213821.42,413.61,6346
682582.61,4213822.0200000005,413.66,6346
682582.58,4213822.21,413.74,6346
682583.34,4213821.62,413.65000000000003,6346
682583.36,4213821.09,413.7,6346
682582.61,4213821.64,413.65000000000003,6346
682584.53,4213822.2,413.65000000000003,6346
682584.08,4213821.04,413.69,6346
682584.71,4213821.2700000005,413.7,6346
682583.92,4213821.89,413.65000000000003,6346
682584.8,4213822.07,413.65000000000003,6346
682585.27,4213821.62,413.71000000000004,6346
682586.03,4213821.03,413.65000000000003,6346
682586.48,4213821.59,413.62,6346
682585.71,4213822.19,413.71000000000004,6346
682586.08,4213821.94,413.72,6346
682586.28,4213820.96,413.64,6346
682585.54,4213821.51,413.69,6346
682587.24,4213820.99,413.64,6346
682586.84,4213821.36,413.66,6346
682587.98,4213821.25,413.67,6346
682587.18,4213821.87,413.67,6346
682588.24,4213822.05,413.67,6346
682588.98,4213821.47,413.71000000000004,6346
682588.9400000001,4213821.8,413.67,6346
682590.49,4213821.15,413.66,6346
682589.72,4213821.75,413.72,6346
682589.92,4213821.8100000005,413.73,6346
682590.67,4213821.22,413.66,6346
682590.46,4213822.16,413.73,6346
682589.68,4213821.25,413.67,6346
682591.26,4213821.53,413.72,6346
682591.6900000001,4213821.82,413.71000000000004,6346
682592.4400000001,4213821.24,413.75,6346
682593.49,4213821.34,413.74,6346
682592.73,4213821.95,413.69,6346
682592.79,4213822.16,413.69,6346
682593.53,4213821.58,413.75,6346
682593.72,4213822.0200000005,413.74,6346
682594.9400000001,4213822.14,413.78000000000003,6346
682594.28,4213820.99,413.74,6346
682594.53,4213821.39,413.75,6346
682595.68,4213821.5600000005,413.76,6346
682596.36,4213820.99,414.24,6346
682595.9500000001,4213822.2700000005,413.77,6346
682596.11,4213822.15,413.79,6346
682596.37,4213822.22,413.77,6346
682596.7000000001,4213821.68,413.85,6346
682596.84,4213821.57,413.87,6346
682597.52,4213821.8100000005,413.98,6346
682599.16,4213822.14,414.25,6346
682599.4400000001,4213822.23,414.21000000000004,6346
682574.9500000001,4213822.61,414.43,6346
682575.13,4213822.7,413.99,6346
682576.31,4213823.28,414.09000000000003,6346
682576.53,4213822.37,413.69,6346
682575.6900000001,4213823.0,414.03000000000003,6346
682576.53,4213822.51,413.69,6346
682577.1,4213822.69,413.7,6346
682577.9500000001,4213822.94,413.69,6346
682577.0700000001,4213823.5600000005,414.65000000000003,6346
682577.27,4213823.55,414.69,6346
682577.5700000001,4213822.58,413.69,6346
682576.8,4213822.63,413.69,6346
682578.71,4213822.35,413.69,6346
682579.41,4213823.64,413.72,6346
682578.14,4213822.95,413.68,6346
682578.89,4213822.36,413.71000000000004,6346
682579.0,4213823.0200000005,413.71000000000004,6346
682578.2000000001,4213823.65,413.75,6346
682578.15,4213823.5200000005,413.71000000000004,6346
682578.91,4213822.95,413.7,6346
682580.16,4213823.0600000005,413.71000000000004,6346
682580.92,4213822.47,413.67,6346
682579.81,4213822.4,413.64,6346
682580.4,4213823.3100000005,413.73,6346
682579.65,4213822.38,413.64,6346
682581.85,4213822.61,413.66,6346
682581.09,4213823.21,413.68,6346
682581.09,4213823.37,413.73,6346
682581.85,4213822.79,413.69,6346
682582.33,4213823.13,413.69,6346
682581.54,4213823.76,413.74,6346
682581.13,4213822.76,413.66,6346
682582.18,4213822.97,413.67,6346
682583.03,4213823.37,413.69,6346
682583.13,4213822.51,413.67,6346
682583.3200000001,4213823.17,413.68,6346
682582.58,4213823.73,413.69,6346
682582.66,4213823.25,413.7,6346
682582.9400000001,4213822.4,413.66,6346
682583.78,4213822.79,413.68,6346
682584.96,4213822.78,413.67,6346
682584.1900000001,4213823.38,413.67,6346
682583.86,4213823.68,413.7,6346
682584.6,4213823.1,413.7,6346
682584.78,4213823.75,413.7,6346
682584.05,4213822.62,413.66,6346
682585.35,4213822.5200000005,413.67,6346
682586.37,4213822.5,413.71000000000004,6346
682585.58,4213823.12,413.7,6346
682586.75,4213823.21,413.7,6346
682587.49,4213822.63,413.71000000000004,6346
682587.43,4213823.55,413.69,6346
682587.6900000001,4213823.55,413.71000000000004,6346
682587.47,4213822.91,413.74,6346
682586.72,4213823.47,413.69,6346
682587.79,4213823.76,413.71000000000004,6346
682588.96,4213822.35,413.67,6346
682588.1900000001,4213822.95,413.74,6346
682589.4400000001,4213823.58,413.75,6346
682588.4400000001,4213822.97,413.75,6346
682589.1900000001,4213822.38,413.69,6346
682588.86,4213823.41,413.75,6346
682588.2000000001,4213822.36,413.67,6346
682590.2000000001,4213822.99,413.7,6346
682590.43,4213823.75,413.72,6346
682589.66,4213822.79,413.7,6346
682590.9500000001,4213822.41,413.7,6346
682591.2000000001,4213823.14,413.71000000000004,6346
682591.96,4213822.55,413.75,6346
682591.3,4213823.33,413.71000000000004,6346
682592.04,4213822.74,413.73,6346
682592.13,4213823.2700000005,413.72,6346
682593.46,4213823.3100000005,413.72,6346
682592.93,4213822.64,413.72,6346
682593.28,4213823.51,413.77,6346
682594.2000000001,4213822.72,413.7,6346
682594.43,4213823.47,413.73,6346
682594.63,4213823.3100000005,413.74,6346
682594.01,4213822.96,413.7,6346
682594.8200000001,4213823.38,413.73,6346
682595.1900000001,4213822.87,413.72,6346
682596.2000000001,4213823.76,413.77,6346
682595.37,4213822.73,413.78000000000003,6346
682595.9500000001,4213823.0600000005,413.78000000000003,6346
682595.14,4213823.69,413.76,6346
682595.61,4213822.8,413.78000000000003,6346
682596.9500000001,4213823.17,413.79,6346
682597.6900000001,4213822.59,413.8,6346
682597.6900000001,4213823.33,413.81,6346
682596.75,4213822.43,413.79,6346
682597.38,4213822.7700000005,413.81,6346
682596.83,4213822.65,413.77,6346
682598.46,4213822.73,413.79,6346
682598.0,4213823.39,413.82,6346
682598.74,4213822.8100000005,413.84000000000003,6346
682599.15,4213823.2,413.83,6346
682599.21,4213823.46,413.8,6346
682599.27,4213823.28,413.8,6346
682599.98,4213823.37,413.83,6346
682600.68,4213822.8,414.18,6346
682599.8200000001,4213823.46,413.77,6346
682601.25,4213823.48,414.12,6346
682576.61,4213824.12,414.03000000000003,6346
682577.37,4213824.28,414.07,6346
682578.53,4213824.26,414.65000000000003,6346
682578.77,4213824.99,414.06,6346
682580.33,4213823.8,413.72,6346
682579.56,4213824.4,413.76,6346
682580.77,4213825.13,413.79,6346
682579.59,4213824.54,413.83,6346
682580.35,4213823.95,413.72,6346
682580.74,4213824.38,413.73,6346
682579.87,4213825.0200000005,414.26,6346
682579.66,4213823.86,413.73,6346
682581.53,4213824.54,413.75,6346
682582.28,4213823.95,413.74,6346
682581.91,4213825.16,413.75,6346
682581.85,4213824.28,413.73,6346
682581.11,4213824.84,413.74,6346
682581.03,4213824.47,413.73,6346
682581.85,4213823.86,413.73,6346
682583.43,4213823.98,413.7,6346
682582.68,4213824.57,413.73,6346
682582.37,4213824.85,413.75,6346
682583.11,4213824.2700000005,413.76,6346
682583.18,4213825.01,413.76,6346
682584.51,4213824.96,413.7,6346
682583.98,4213824.38,413.72,6346
682584.52,4213825.12,413.77,6346
682585.26,4213824.38,413.69,6346
682586.0,4213823.8,413.68,6346
682585.9,4213824.74,413.72,6346
682586.2000000001,4213824.72,413.72,6346
682585.99,4213824.0200000005,413.71000000000004,6346
682585.25,4213824.57,413.71000000000004,6346
682586.26,4213824.91,413.74,6346
682586.67,4213824.14,413.71000000000004,6346
682587.9400000001,4213824.75,413.73,6346
682586.9500000001,4213824.14,413.72,6346
682587.26,4213824.67,413.73,6346
682587.02,4213824.34,413.72,6346
682588.7000000001,4213824.17,413.71000000000004,6346
682588.9,4213824.94,413.73,6346
682588.06,4213824.04,413.71000000000004,6346
682589.05,4213825.08,413.75,6346
682588.87,4213824.08,413.71000000000004,6346
682588.12,4213824.63,413.71000000000004,6346
682589.67,4213824.34,413.69,6346
682589.8,4213824.49,413.73,6346
682590.54,4213823.91,413.78000000000003,6346
682590.54,4213824.5200000005,413.73,6346
682589.74,4213825.15,413.75,6346
682591.22,4213825.05,413.76,6346
682591.97,4213824.47,413.71000000000004,6346
682591.33,4213823.9,413.73,6346
682591.8,4213824.62,413.78000000000003,6346
682592.7000000001,4213823.89,413.75,6346
682593.66,4213824.07,413.75,6346
682592.9,4213824.67,413.74,6346
682592.39,4213825.05,413.8,6346
682593.14,4213824.47,413.76,6346
682593.55,4213824.94,413.78000000000003,6346
682592.53,4213824.07,413.73,6346
