714530.74,4280331.87,232.29,6346
714530.61,4280331.76,232.31,6346
714531.2000000001,4280330.83,232.32,6346
714531.65,4280331.3,232.33,6346
714531.4500000001,4280331.24,232.32,6346
714532.29,4280330.72,232.34,6346
714531.8,4280331.5600000005,232.38,6346
714532.5700000001,4280330.73,232.32,6346
714533.47,4280331.6,232.33,6346
714532.74,4280330.98,232.35,6346
714533.79,4280331.99,232.33,6346
714533.27,4280331.74,232.33,6346
714534.3,4280331.08,232.38,6346
714535.0,4280331.25,232.4,6346
714534.1,4280331.82,232.32,6346
714534.27,4280331.63,232.37,6346
714535.11,4280331.11,232.4,6346
714535.26,4280331.54,232.39000000000001,6346
714534.34,4280332.11,232.34,6346
714535.0700000001,4280331.22,232.39000000000001,6346
714534.51,4280331.28,232.39000000000001,6346
714536.1900000001,4280330.96,232.39000000000001,6346
714536.85,4280331.91,232.38,6346
714537.7000000001,4280331.38,232.38,6346
714537.76,4280332.0200000005,232.4,6346
714537.88,4280331.91,232.38,6346
714538.13,4280331.55,232.39000000000001,6346
714536.98,4280332.11,232.34,6346
714538.52,4280330.87,232.5,6346
714538.6900000001,4280331.45,232.38,6346
714538.72,4280331.39,232.39000000000001,6346
714539.3200000001,4280331.53,232.39000000000001,6346
714538.39,4280332.11,232.37,6346
714542.33,4280331.33,232.3,6346
714543.25,4280330.76,232.33,6346
714543.59,4280330.84,232.34,6346
714543.31,4280330.76,232.35,6346
714544.18,4280332.03,232.3,6346
714545.01,4280331.51,232.36,6346
714544.98,4280331.99,232.35,6346
714544.97,4280331.87,232.35,6346
714545.8200000001,4280331.0,232.56,6346
714546.21,4280331.42,232.36,6346
714545.28,4280331.99,232.33,6346
714545.83,4280331.47,232.33,6346
714546.67,4280331.47,232.61,6346
714545.79,4280332.04,232.34,6346
714545.4500000001,4280331.72,232.35,6346
714528.68,4280332.39,232.31,6346
714528.9,4280333.01,232.29,6346
714528.92,4280332.8,232.32,6346
714529.0,4280333.29,232.41,6346
714529.21,4280332.66,232.33,6346
714529.81,4280332.44,232.33,6346
714530.9500000001,4280333.15,232.32,6346
714529.76,4280332.28,232.34,6346
714530.89,4280332.13,232.29,6346
714529.9500000001,4280332.71,232.34,6346
714531.8,4280332.63,232.29,6346
714532.27,4280332.95,232.3,6346
714531.36,4280333.51,232.31,6346
714531.75,4280333.19,232.36,6346
714532.48,4280333.26,232.35,6346
714532.29,4280332.7,232.3,6346
714531.8200000001,4280333.17,232.34,6346
714531.48,4280333.2,232.34,6346
714531.97,4280332.71,232.3,6346
714532.63,4280332.12,232.32,6346
714533.17,4280332.39,232.37,6346
714532.6,4280332.67,232.32,6346
714533.4400000001,4280332.15,232.33,6346
714533.42,4280332.69,232.31,6346
714532.77,4280332.23,232.3,6346
714534.33,4280333.47,232.29,6346
714535.17,4280332.95,232.31,6346
714535.0,4280333.25,232.37,6346
714534.55,4280333.36,232.31,6346
714536.0,4280332.43,232.38,6346
714535.93,4280333.16,232.32,6346
714535.35,4280333.47,232.34,6346
714535.56,4280333.5200000005,232.32,6346
714535.48,4280332.7700000005,232.34,6346
714536.2000000001,4280332.95,232.34,6346
714536.53,4280333.26,232.33,6346
714536.26,4280332.82,232.3,6346
714536.85,4280332.59,232.36,6346
714538.16,4280333.25,232.38,6346
714537.04,4280332.43,232.39000000000001,6346
714537.4500000001,4280332.69,232.39000000000001,6346
714537.49,4280332.19,232.43,6346
714539.02,4280332.73,232.37,6346
714539.54,4280333.05,232.37,6346
714539.16,4280333.11,232.38,6346
714539.03,4280333.37,232.33,6346
714539.86,4280332.2,232.37,6346
714540.47,4280332.48,232.34,6346
714540.0,4280332.6,232.38,6346
714540.79,4280332.57,232.38,6346
714539.86,4280333.14,232.38,6346
714539.68,4280332.72,232.37,6346
714542.43,4280333.49,232.38,6346
714542.38,4280333.0,232.33,6346
714541.9400000001,4280332.48,232.38,6346
714541.43,4280332.99,232.36,6346
714541.14,4280332.91,232.37,6346
714541.6900000001,4280332.37,232.38,6346
714542.49,4280333.07,232.32,6346
714543.3200000001,4280332.55,232.39000000000001,6346
714543.43,4280333.13,232.32,6346
714543.3,4280333.0200000005,232.34,6346
714543.0700000001,4280332.85,232.32,6346
714544.36,4280332.5600000005,232.3,6346
714544.14,4280332.51,232.37,6346
714544.86,4280332.61,232.33,6346
714543.93,4280333.19,232.36,6346
714544.93,4280332.23,232.35,6346
714543.88,4280332.95,232.37,6346
714544.42,4280332.42,232.32,6346
714545.42,4280333.2700000005,232.31,6346
714546.26,4280332.76,232.34,6346
714546.3200000001,4280333.14,232.37,6346
714547.12,4280332.23,232.3,6346
714547.75,4280332.42,232.34,6346
714546.83,4280332.99,232.35,6346
714547.17,4280332.61,232.35,6346
714548.05,4280332.5600000005,232.38,6346
714547.12,4280333.14,232.36,6346
714549.28,4280333.34,232.31,6346
714530.11,4280333.67,232.34,6346
714530.43,4280334.09,232.4,6346
714530.92,4280333.71,232.3,6346
714530.97,4280333.7,232.31,6346
714531.55,4280333.84,232.31,6346
714531.33,4280333.66,232.32,6346
714532.63,4280334.51,232.31,6346
714533.48,4280333.99,232.29,6346
714533.16,4280334.87,232.31,6346
714533.67,4280334.51,232.33,6346
714533.53,4280334.71,232.33,6346
714533.03,4280334.88,232.33,6346
714533.53,4280334.39,232.32,6346
714535.02,4280333.73,232.3,6346
714534.09,4280334.3,232.28,6346
714534.52,4280333.99,232.3,6346
714534.68,4280334.41,232.29,6346
714534.5,4280333.75,232.32,6346
714534.0,4280334.23,232.31,6346
714534.03,4280333.88,232.31,6346
714535.65,4280334.8100000005,232.29,6346
714535.6,4280333.84,232.31,6346
714536.49,4280334.29,232.31,6346
714536.63,4280334.68,232.31,6346
714536.3,4280334.72,232.31,6346
714536.06,4280334.67,232.31,6346
714537.33,4280333.7700000005,232.32,6346
714537.7000000001,4280334.19,232.34,6346
714536.79,4280334.76,232.31,6346
714537.47,4280334.16,232.32,6346
714538.0,4280334.29,232.34,6346
714537.08,4280334.87,232.32,6346
714537.59,4280334.28,232.31,6346
714536.8,4280334.23,232.34,6346
714538.62,4280333.62,232.38,6346
714538.31,4280333.64,232.37,6346
714538.93,4280333.72,232.4,6346
714538.31,4280333.57,232.37,6346
714539.9400000001,4280334.64,232.39000000000001,6346
714540.78,4280334.12,232.43,6346
714540.64,4280334.85,232.4,6346
714540.78,4280334.58,232.4,6346
714540.98,4280334.4,232.38,6346
714541.63,4280333.6,232.39000000000001,6346
714541.58,4280334.28,232.37,6346
714541.61,4280334.0600000005,232.4,6346
714542.06,4280334.34,232.37,6346
714541.13,4280334.92,232.39000000000001,6346
714541.79,4280334.12,232.4,6346
714541.13,4280334.7700000005,232.38,6346
714541.68,4280333.7,232.37,6346
714542.49,4280333.71,232.4,6346
714542.87,4280334.84,232.41,6346
714543.73,4280334.32,232.33,6346
714542.46,4280333.54,232.39000000000001,6346
714543.0,4280333.76,232.34,6346
714543.79,4280334.7,232.4,6346
714544.5700000001,4280333.8,232.32,6346
714544.98,4280334.13,232.33,6346
714544.05,4280334.71,232.35,6346
714544.64,4280334.18,232.34,6346
714545.26,4280334.29,232.34,6346
714544.3200000001,4280334.86,232.4,6346
714544.7000000001,4280334.08,232.33,6346
714545.91,4280333.5600000005,232.33,6346
714545.48,4280333.66,232.33,6346
714546.1900000001,4280333.71,232.32,6346
714546.76,4280334.89,232.31,6346
714547.6,4280334.37,232.31,6346
714548.05,4280334.79,232.33,6346
714547.91,4280334.78,232.33,6346
714548.43,4280333.86,232.36,6346
714548.97,4280334.21,232.37,6346
714548.75,4280334.26,232.35,6346
714549.43,4280334.34,232.37,6346
714548.51,4280334.92,232.34,6346
714548.56,4280334.5600000005,232.38,6346
714549.09,4280334.03,232.33,6346
714549.92,4280333.63,232.35,6346
714550.08,4280334.85,232.34,6346
714550.93,4280334.33,232.31,6346
714549.6,4280333.74,232.33,6346
714550.34,4280333.78,232.44,6346
714549.59,4280333.93,232.31,6346
714551.12,4280334.83,232.31,6346
714551.49,4280334.5200000005,232.38,6346
714551.81,4280334.7700000005,232.42000000000002,6346
714551.54,4280334.89,232.31,6346
714532.8200000001,4280335.04,232.32,6346
714533.74,4280334.99,232.32,6346
714533.96,4280335.85,232.31,6346
714534.8,4280335.33,232.32,6346
714534.9400000001,4280335.9,232.33,6346
714534.9500000001,4280335.72,232.3,6346
714535.22,4280336.0200000005,232.31,6346
714535.3200000001,4280335.69,232.32,6346
714535.03,4280335.69,232.31,6346
714535.87,4280335.33,232.29,6346
714535.8,4280335.19,232.29,6346
714536.15,4280335.44,232.29,6346
714537.43,4280336.19,232.3,6346
714537.97,4280336.07,232.35,6346
714538.27,4280335.67,232.31,6346
714539.11,4280335.16,232.34,6346
714538.8200000001,4280335.99,232.31,6346
714538.27,4280336.13,232.32,6346
714539.1,4280335.61,232.37,6346
714539.27,4280336.07,232.34,6346
714539.41,4280334.99,232.35,6346
714538.91,4280335.48,232.33,6346
714538.41,4280335.98,232.33,6346
714538.49,4280335.55,232.32,6346
714539.73,4280335.42,232.36,6346
714539.9400000001,4280335.1,232.39000000000001,6346
714540.2000000001,4280335.49,232.35,6346
714540.26,4280335.11,232.34,6346
714540.86,4280336.26,232.35,6346
714541.1900000001,4280335.88,232.34,6346
714542.02,4280335.36,232.39000000000001,6346
714542.2000000001,4280335.85,232.4,6346
714541.26,4280336.26,232.36,6346
714542.1,4280335.74,232.39000000000001,6346
714541.37,4280335.76,232.39000000000001,6346
714541.22,4280335.6,232.4,6346
714543.12,4280335.28,232.4,6346
714542.9400000001,4280335.22,232.41,6346
714543.39,4280335.44,232.41,6346
714542.4500000001,4280336.0200000005,232.4,6346
714543.4,4280335.37,232.39000000000001,6346
714542.85,4280335.3,232.42000000000002,6346
714545.0700000001,4280335.93,232.4,6346
714545.91,4280335.41,232.4,6346
714546.2000000001,4280335.93,232.35,6346
714545.37,4280336.34,232.41,6346
714546.21,4280335.83,232.39000000000001,6346
714546.65,4280336.0600000005,232.36,6346
714547.12,4280335.36,232.38,6346
714547.0700000001,4280335.3,232.34,6346
714547.58,4280335.49,232.36,6346
714548.01,4280336.21,232.34,6346
714548.4,4280335.89,232.33,6346
714549.24,4280335.37,232.33,6346
714549.24,4280335.99,232.37,6346
714548.96,4280336.08,232.41,6346
714549.12,4280335.73,232.38,6346
714548.46,4280336.38,232.35,6346
714548.73,4280335.5,232.38,6346
714550.18,4280335.41,232.34,6346
714549.8200000001,4280335.55,232.35,6346
714550.66,4280335.04,232.36,6346
714550.9,4280335.34,232.36,6346
714549.98,4280335.91,232.33,6346
714549.78,4280335.08,232.36,6346
714552.35,4280335.76,232.34,6346
714551.5700000001,4280336.1,232.3,6346
714552.26,4280335.4,232.28,6346
714551.5700000001,4280335.14,232.33,6346
714551.05,4280335.65,232.37,6346
714551.0,4280335.42,232.38,6346
714552.53,4280335.94,232.34,6346
714553.33,4280335.43,232.53,6346
714553.63,4280335.87,232.38,6346
714553.3200000001,4280335.87,232.35,6346
714553.53,4280336.25,232.36,6346
714553.21,4280335.98,232.35,6346
714535.72,4280337.24,232.39000000000001,6346
714536.58,4280336.72,232.33,6346
714536.6,4280337.16,232.32,6346
714537.9,4280336.5600000005,232.29,6346
714536.97,4280337.13,232.33,6346
714537.43,4280336.64,232.34,6346
714537.42,4280337.22,232.34,6346
714537.92,4280336.47,232.34,6346
714537.42,4280336.96,232.33,6346
714536.93,4280337.1,232.33,6346
714537.4500000001,4280336.59,232.32,6346
714538.66,4280337.44,232.35,6346
714539.51,4280336.92,232.32,6346
714539.4500000001,4280337.55,232.3,6346
714538.35,4280336.64,232.31,6346
714539.5700000001,4280337.3,232.32,6346
714539.36,4280337.75,232.33,6346
714539.12,4280337.68,232.32,6346
714540.35,4280336.4,232.33,6346
714540.37,4280336.99,232.33,6346
714540.41,4280336.78,232.37,6346
714540.61,4280337.17,232.32,6346
714539.67,4280337.75,232.35,6346
714540.36,4280336.75,232.33,6346
714539.65,4280337.16,232.35,6346
714540.18,4280336.64,232.37,6346
714541.29,4280336.42,232.34,6346
714541.53,4280336.59,232.35,6346
714542.5700000001,4280337.47,232.33,6346
714543.4,4280336.96,232.37,6346
714543.43,4280337.64,232.34,6346
714543.6900000001,4280337.38,232.37,6346
714543.86,4280337.79,232.34,6346
714543.73,4280336.92,232.41,6346
714543.22,4280337.43,232.35,6346
714542.9500000001,4280337.37,232.37,6346
714544.24,4280336.44,232.37,6346
714545.27,4280336.5,232.38,6346
714544.34,4280337.07,232.42000000000002,6346
714544.52,4280336.87,232.41,6346
714544.78,4280337.21,232.42000000000002,6346
714544.74,4280337.16,232.41,6346
714544.13,4280337.33,232.35,6346
714545.84,4280337.46,232.43,6346
714546.6900000001,4280336.93,232.4,6346
714546.46,4280337.7,232.38,6346
714545.71,4280336.64,232.42000000000002,6346
714546.4400000001,4280337.64,232.37,6346
714546.61,4280337.61,232.41,6346
714545.39,4280336.51,232.41,6346
714547.55,4280336.41,232.36,6346
714547.38,4280337.13,232.39000000000001,6346
714547.27,4280337.12,232.4,6346
714548.1,4280337.07,232.42000000000002,6346
714547.17,4280337.64,232.41,6346
714547.8200000001,4280337.01,232.35,6346
714548.3200000001,4280336.5600000005,232.35,6346
714548.13,4280336.6,232.35,6346
714549.04,4280336.49,232.35,6346
714549.99,4280337.51,232.32,6346
714550.83,4280336.99,232.32,6346
714550.85,4280337.59,232.37,6346
714550.75,4280337.46,232.38,6346
714550.39,4280337.71,232.33,6346
714550.15,4280337.5,232.33,6346
714551.67,4280336.47,232.36,6346
714551.79,4280337.0200000005,232.31,6346
714551.62,4280336.92,232.37,6346
714551.67,4280337.4,232.38,6346
714551.7000000001,4280336.4,232.34,6346
714551.04,4280337.0600000005,232.3,6346
714552.71,4280336.44,232.36,6346
714552.72,4280337.79,232.32,6346
714553.56,4280337.2700000005,232.35,6346
714552.47,4280336.4,232.35,6346
714552.6,4280336.82,232.35,6346
714553.55,4280337.64,232.3,6346
714552.66,4280336.5200000005,232.36,6346
714554.43,4280336.75,232.27,6346
714554.89,4280337.03,232.31,6346
714553.96,4280337.61,232.31,6346
714554.18,4280337.29,232.36,6346
714555.03,4280336.7700000005,232.35,6346
714555.02,4280337.23,232.36,6346
714554.1,4280337.8,232.37,6346
714556.93,4280337.64,232.48000000000002,6346
714537.8200000001,4280337.96,232.32,6346
714537.88,4280338.35,232.37,6346
714537.88,4280337.99,232.33,6346
714538.53,4280338.13,232.34,6346
714538.73,4280337.82,232.34,6346
714538.74,4280338.32,232.34,6346
714538.61,4280338.2,232.35,6346
714540.0700000001,4280339.0200000005,232.32,6346
714540.9,4280338.51,232.3,6346
714541.74,4280337.99,232.31,6346
714541.59,4280338.78,232.28,6346
714541.16,4280338.94,232.33,6346
714542.01,4280338.42,232.31,6346
714542.01,4280338.93,232.31,6346
714542.22,4280338.42,232.33,6346
714541.38,4280338.93,232.34,6346
714541.9,4280338.41,232.31,6346
714542.42,4280337.89,232.34,6346
714542.5,4280338.21,232.33,6346
714543.33,4280339.01,232.32,6346
714542.85,4280337.9,232.34,6346
714542.93,4280338.36,232.38,6346
714542.72,4280337.92,232.38,6346
714544.17,4280338.49,232.34,6346
714545.01,4280337.97,232.35,6346
714544.61,4280338.85,232.37,6346
714543.92,4280339.2,232.31,6346
714544.75,4280338.68,232.35,6346
714544.99,4280338.49,232.34,6346
714544.48,4280338.99,232.37,6346
714544.26,4280338.83,232.37,6346
714544.78,4280338.3100000005,232.34,6346
714545.55,4280338.2700000005,232.34,6346
714545.59,4280338.16,232.4,6346
714546.23,4280338.22,232.42000000000002,6346
714545.3200000001,4280338.79,232.36,6346
714545.51,4280337.98,232.39000000000001,6346
714547.43,4280339.08,232.4,6346
714547.46,4280339.21,232.4,6346
714548.26,4280338.5600000005,232.44,6346
714549.12,4280338.03,232.42000000000002,6346
714549.0,4280338.73,232.38,6346
714548.17,4280339.04,232.44,6346
714549.03,4280338.51,232.4,6346
714548.86,4280339.13,232.4,6346
714548.76,4280338.89,232.41,6346
714549.46,4280338.19,232.4,6346
714549.92,4280338.16,232.4,6346
714549.89,4280337.98,232.37,6346
714550.74,4280337.98,232.36,6346
714549.8,4280338.55,232.39000000000001,6346
714549.74,4280338.35,232.4,6346
714551.01,4280338.84,232.41,6346
714551.87,4280338.32,232.31,6346
714552.09,4280338.76,232.34,6346
714551.67,4280338.84,232.35,6346
714552.24,4280338.95,232.37,6346
714552.24,4280338.94,232.35,6346
714551.9,4280338.6,232.34,6346
714553.01,4280338.19,232.38,6346
714552.5,4280338.33,232.39000000000001,6346
714553.35,4280337.8100000005,232.37,6346
714553.16,4280338.38,232.38,6346
714552.9,4280338.29,232.37,6346
714554.38,4280339.22,232.35,6346
714555.25,4280338.69,232.32,6346
714556.1,4280338.17,232.35,6346
714556.5700000001,4280338.51,232.35,6346
714555.65,4280339.08,232.32,6346
714555.27,4280339.09,232.34,6346
714556.1,4280338.58,232.36,6346
714556.4,4280338.87,232.37,6346
714555.5700000001,4280338.57,232.31,6346
714557.48,4280337.94,232.48000000000002,6346
714556.9500000001,4280338.0600000005,232.33,6346
714557.34,4280338.3,232.34,6346
714557.4,4280338.08,232.38,6346
714558.23,4280338.82,232.31,6346
714559.12,4280338.83,232.59,6346
714558.49,4280339.07,232.36,6346
714558.4500000001,4280339.04,232.31,6346
714540.66,4280339.35,232.37,6346
714540.3200000001,4280339.46,232.33,6346
714540.86,4280339.44,232.35,6346
714541.64,4280340.05,232.35,6346
714541.84,4280340.5600000005,232.36,6346
714541.0700000001,4280339.51,232.34,6346
714542.22,4280340.24,232.33,6346
714542.49,4280339.53,232.31,6346
714543.6900000001,4280339.42,232.3,6346
714542.77,4280339.99,232.34,6346
714543.06,4280339.72,232.35,6346
714543.4500000001,4280339.94,232.36,6346
714542.52,4280340.5200000005,232.32,6346
714543.21,4280339.88,232.35,6346
714543.72,4280339.36,232.32,6346
714544.91,4280340.64,232.32,6346
714544.4,4280339.36,232.32,6346
714545.74,4280340.12,232.37,6346
714546.59,4280339.6,232.35,6346
714546.22,4280340.45,232.37,6346
714545.62,4280340.62,232.33,6346
714546.47,4280340.09,232.38,6346
714546.4400000001,4280340.22,232.37,6346
714546.16,4280340.24,232.37,6346
714546.6900000001,4280339.71,232.41,6346
714548.06,4280339.3100000005,232.41,6346
714547.15,4280339.88,232.35,6346
714547.3200000001,4280339.57,232.4,6346
714547.93,4280339.71,232.39000000000001,6346
714547.0,4280340.28,232.39000000000001,6346
714546.9500000001,4280339.72,232.4,6346
714548.49,4280340.4,232.34,6346
714549.3200000001,4280339.88,232.4,6346
714549.3,4280340.48,232.36,6346
714549.13,4280340.4,232.4,6346
714549.17,4280340.39,232.4,6346
714548.89,4280340.28,232.4,6346
714550.17,4280339.36,232.37,6346
714550.22,4280339.91,232.37,6346
714549.97,4280339.88,232.41,6346
714550.8200000001,4280339.36,232.4,6346
714550.38,4280340.1,232.41,6346
714550.18,4280339.39,232.42000000000002,6346
714549.67,4280339.89,232.39000000000001,6346
714551.15,4280339.33,232.38,6346
714551.3,4280339.53,232.4,6346
714551.2000000001,4280339.3,232.39000000000001,6346
714552.66,4280340.28,232.39000000000001,6346
714553.53,4280339.75,232.34,6346
714553.77,4280340.24,232.34,6346
714553.5700000001,4280340.14,232.41,6346
714553.6,4280340.6,232.41,6346
714553.61,4280340.5200000005,232.4,6346
714553.14,4280340.51,232.39000000000001,6346
714554.72,4280339.66,232.33,6346
714554.42,4280339.62,232.38,6346
714554.56,4280340.0200000005,232.35,6346
714554.91,4280339.23,232.32,6346
714554.26,4280339.87,232.34,6346
714553.84,4280339.8100000005,232.33,6346
714555.7000000001,4280340.38,232.34,6346
714556.54,4280339.86,232.35,6346
714556.38,4280340.54,232.33,6346
714555.48,4280339.44,232.38,6346
714555.97,4280340.63,232.37,6346
714557.38,4280339.34,232.37,6346
714557.31,4280339.97,232.32,6346
714556.81,4280340.11,232.38,6346
714557.65,4280339.59,232.39000000000001,6346
714557.98,4280339.8100000005,232.37,6346
714557.04,4280340.39,232.4,6346
714557.81,4280339.69,232.37,6346
714556.71,4280340.18,232.31,6346
714557.4400000001,4280339.46,232.38,6346
714558.24,4280339.4,232.35,6346
714558.92,4280339.23,232.36,6346
714559.92,4280340.24,232.36,6346
714560.47,4280340.5,232.37,6346
714560.41,4280340.24,232.35,6346
714561.16,4280340.2700000005,232.43,6346
714543.1900000001,4280341.68,232.46,6346
714544.06,4280341.16,232.32,6346
714544.39,4280341.58,232.34,6346
714543.91,4280341.67,232.35,6346
714544.76,4280341.15,232.36,6346
714545.14,4280341.43,232.37,6346
714544.2000000001,4280342.01,232.37,6346
714545.1,4280341.29,232.35,6346
714545.3,4280341.0200000005,232.36,6346
714545.9500000001,4280341.97,232.34,6346
714546.08,4280340.86,232.33,6346
714546.62,4280341.96,232.35,6346
714545.92,4280340.73,232.35,6346
714545.61,4280340.78,232.32,6346
714546.8,4280341.44,232.29,6346
714547.64,4280340.92,232.35,6346
714547.46,4280341.62,232.29,6346
714547.46,4280341.44,232.31,6346
714547.6,4280341.83,232.31,6346
714548.38,4280341.05,232.37,6346
714548.3,4280340.92,232.34,6346
714549.4500000001,4280340.68,232.34,6346
714548.51,4280341.26,232.38,6346
714548.35,4280340.82,232.34,6346
714550.11,4280341.86,232.34,6346
714550.9500000001,4280341.33,232.4,6346
714551.8,4280340.8,232.41,6346
714551.91,4280341.38,232.41,6346
714550.99,4280341.95,232.36,6346
714551.05,4280341.69,232.34,6346
714551.88,4280341.18,232.41,6346
714551.75,4280341.75,232.41,6346
714551.11,4280341.72,232.39000000000001,6346
714551.04,4280341.53,232.4,6346
714552.83,4280340.8100000005,232.43,6346
714553.15,4280341.94,232.42000000000002,6346
714552.72,4280340.66,232.41,6346
714552.68,4280341.17,232.42000000000002,6346
714552.43,4280341.22,232.36,6346
714553.56,4280341.9,232.41,6346
714553.99,4280341.43,232.41,6346
714554.85,4280340.91,232.36,6346
714554.52,4280341.69,232.42000000000002,6346
714554.27,4280341.67,232.44,6346
714555.13,4280341.15,232.38,6346
714555.18,4280341.53,232.42000000000002,6346
714554.81,4280341.08,232.41,6346
714554.29,4280341.6,232.43,6346
714555.4500000001,4280341.12,232.38,6346
714556.12,4280340.96,232.36,6346
714556.01,4280340.87,232.34,6346
714557.39,4280341.8,232.35,6346
714557.89,4280341.79,232.37,6346
714558.24,4280341.28,232.34,6346
714559.08,4280340.76,232.33,6346
714558.61,4280341.65,232.35,6346
714558.73,4280341.2700000005,232.35,6346
714559.31,4280341.42,232.36,6346
714558.39,4280341.98,232.35,6346
714559.35,4280340.82,232.39000000000001,6346
714558.68,4280341.48,232.35,6346
714558.3200000001,4280341.41,232.34,6346
714559.54,4280341.07,232.38,6346
714560.77,4280341.69,232.39000000000001,6346
714559.56,4280340.76,232.38,6346
714560.24,4280340.84,232.37,6346
714561.63,4280341.16,232.37,6346
714562.02,4280341.47,232.37,6346
714561.09,4280342.04,232.34,6346
714561.28,4280341.75,232.36,6346
714562.12,4280341.23,232.37,6346
714561.5,4280342.01,232.37,6346
714561.22,4280341.82,232.38,6346
714562.43,4280341.44,232.35,6346
714564.02,4280342.0200000005,232.35,6346
714545.11,4280342.48,232.33,6346
714546.53,4280342.19,232.32,6346
714545.61,4280342.76,232.33,6346
714545.78,4280342.48,232.33,6346
714546.66,4280342.4,232.35,6346
714545.73,4280342.98,232.35,6346
714545.81,4280342.23,232.34,6346
714547.55,4280343.43,232.34,6346
714548.41,4280342.91,232.3,6346
714549.26,4280342.38,232.32,6346
714549.15,4280343.09,232.31,6346
714548.52,4280343.25,232.35,6346
714549.37,4280342.73,232.32,6346
714548.96,4280343.47,232.35,6346
714550.0700000001,4280342.5200000005,232.38,6346
714550.2000000001,4280342.21,232.39000000000001,6346
714550.83,4280342.32,232.35,6346
714549.9,4280342.89,232.34,6346
714550.61,4280342.22,232.38,6346
714549.96,4280342.6,232.36,6346
714550.5,4280342.07,232.35,6346
714551.48,4280342.98,232.34,6346
714552.31,4280342.47,232.36,6346
714551.74,4280343.41,232.4,6346
714551.76,4280343.22,232.38,6346
714553.59,4280342.26,232.42000000000002,6346
714552.67,4280342.84,232.35,6346
714552.6,4280342.7,232.35,6346
714553.4400000001,4280342.18,232.41,6346
714553.33,4280342.68,232.41,6346
714552.4,4280343.26,232.35,6346
714553.77,4280342.11,232.41,6346
714553.26,4280342.62,232.42000000000002,6346
714552.47,4280342.98,232.35,6346
714553.02,4280342.44,232.42000000000002,6346
714554.84,4280343.36,232.43,6346
714554.25,4280342.11,232.41,6346
714555.68,4280342.84,232.45000000000002,6346
714556.54,4280342.32,232.4,6346
714555.81,4280343.37,232.45000000000002,6346
714555.37,4280343.34,232.43,6346
714556.21,4280342.82,232.41,6346
714556.52,4280343.14,232.4,6346
714555.63,4280343.25,232.42000000000002,6346
714555.37,4280343.2,232.42000000000002,6346
714557.6900000001,4280342.22,232.34,6346
714556.74,4280342.79,232.41,6346
714557.04,4280342.3,232.42000000000002,6346
714557.4500000001,4280342.5600000005,232.42000000000002,6346
714557.62,4280342.12,232.36,6346
714558.23,4280343.25,232.42000000000002,6346
714559.09,4280342.73,232.36,6346
714559.22,4280343.19,232.37,6346
714558.73,4280343.3100000005,232.43,6346
714559.23,4280342.99,232.4,6346
714559.9400000001,4280342.2,232.34,6346
714560.14,4280342.62,232.4,6346
714559.58,4280342.79,232.38,6346
714560.43,4280342.2700000005,232.34,6346
714560.5700000001,4280342.58,232.35,6346
714559.64,4280343.16,232.38,6346
714560.49,4280342.54,232.35,6346
714561.35,4280342.29,232.34,6346
714562.3,4280342.62,232.38,6346
714561.78,4280343.14,232.4,6346
714561.6,4280343.0600000005,232.37,6346
714562.16,4280342.5,232.38,6346
714562.33,4280343.0600000005,232.35,6346
714563.18,4280342.54,232.35,6346
714563.46,4280342.99,232.37,6346
714562.53,4280343.4,232.36,6346
714563.37,4280342.88,232.36,6346
714563.25,4280343.36,232.39000000000001,6346
714562.92,4280343.39,232.33,6346
714564.4,4280342.42,232.32,6346
714564.22,4280342.36,232.34,6346
714564.17,4280342.79,232.39000000000001,6346
714565.17,4280343.38,232.39000000000001,6346
714565.71,4280343.43,232.39000000000001,6346
714568.39,4280342.68,232.08,6346
714568.3200000001,4280342.45,232.0,6346
714547.68,4280343.7700000005,232.34,6346
714548.03,4280344.05,232.35,6346
714548.21,4280343.67,232.37,6346
714548.9500000001,4280344.54,232.35,6346
714549.24,4280344.7700000005,232.35,6346
714549.79,4280344.0200000005,232.35,6346
714550.64,4280343.5,232.31,6346
714550.83,4280343.98,232.32,6346
714549.9,4280344.54,232.34,6346
714550.08,4280344.26,232.36,6346
714550.92,4280343.74,232.32,6346
714550.54,4280344.4,232.36,6346
714550.3200000001,4280343.7700000005,232.33,6346
714549.67,4280344.42,232.33,6346
714551.48,4280343.83,232.32,6346
714553.17,4280344.4,232.31,6346
714552.87,4280344.88,232.35,6346
714553.7000000001,4280344.37,232.41,6346
714553.74,4280344.86,232.4,6346
714552.55,4280344.89,232.34,6346
714553.74,4280344.82,232.39000000000001,6346
714554.0,4280343.88,232.34,6346
714554.89,4280343.94,232.42000000000002,6346
714553.96,4280344.51,232.41,6346
714554.54,4280343.85,232.41,6346
714554.66,4280344.28,232.36,6346
714555.12,4280343.76,232.43,6346
714554.59,4280344.28,232.37,6346
714554.28,4280344.29,232.4,6346
714554.83,4280343.74,232.43,6346
714555.7000000001,4280344.8100000005,232.35,6346
714556.54,4280344.29,232.41,6346
714555.58,4280343.71,232.43,6346
714556.22,4280344.86,232.38,6346
714557.38,4280343.78,232.45000000000002,6346
714557.36,4280344.33,232.42000000000002,6346
714557.05,4280344.35,232.43,6346
714557.89,4280343.83,232.43,6346
714557.77,4280344.3100000005,232.43,6346
714556.84,4280344.88,232.42000000000002,6346
714557.54,4280344.29,232.41,6346
714558.28,4280343.76,232.42000000000002,6346
714558.7000000001,4280343.73,232.42000000000002,6346
714558.71,4280343.5,232.41,6346
714558.09,4280343.75,232.43,6346
714559.8,4280344.61,232.42000000000002,6346
714560.65,4280344.09,232.38,6346
714560.66,4280344.71,232.41,6346
714560.83,4280344.44,232.41,6346
714560.72,4280344.19,232.36,6346
714560.2000000001,4280344.71,232.42000000000002,6346
714559.9500000001,4280344.71,232.45000000000002,6346
714561.5,4280343.57,232.35,6346
714561.59,4280344.14,232.35,6346
714561.68,4280343.92,232.4,6346
714562.31,4280343.94,232.42000000000002,6346
714561.39,4280344.51,232.38,6346
714562.25,4280343.6,232.33,6346
714562.53,4280343.57,232.35,6346
714563.48,4280344.42,232.37,6346
714563.72,4280344.66,232.41,6346
714563.65,4280344.35,232.4,6346
714564.3200000001,4280343.9,232.41,6346
714564.73,4280344.15,232.39000000000001,6346
714563.79,4280344.73,232.4,6346
714564.03,4280344.46,232.41,6346
714564.87,4280343.95,232.39000000000001,6346
714564.9,4280344.33,232.4,6346
714564.25,4280344.13,232.39000000000001,6346
714565.66,4280343.58,232.38,6346
714565.83,4280343.76,232.38,6346
714567.16,4280344.5600000005,232.35,6346
714567.97,4280344.04,232.52,6346
714567.53,4280344.69,232.39000000000001,6346
714567.99,4280344.62,232.32,6346
714567.84,4280344.19,232.39000000000001,6346
714568.05,4280344.72,232.39000000000001,6346
714550.61,4280345.97,232.38,6346
714549.61,4280344.98,232.36,6346
714551.47,4280345.44,232.36,6346
714552.3200000001,4280344.92,232.32,6346
714552.12,4280345.65,232.37,6346
714551.1900000001,4280346.22,232.37,6346
714551.1900000001,4280345.91,232.37,6346
714552.03,4280345.4,232.36,6346
714551.87,4280346.01,232.37,6346
714551.9,4280345.53,232.36,6346
714551.25,4280346.17,232.36,6346
714553.05,4280345.08,232.34,6346
714552.81,4280345.43,232.35,6346
714554.02,4280345.85,232.32,6346
714554.86,4280345.33,232.33,6346
714554.58,4280346.0600000005,232.33,6346
714554.54,4280345.9,232.34,6346
714555.0,4280346.0200000005,232.33,6346
714554.08,4280346.0200000005,232.33,6346
714556.4400000001,4280344.91,232.37,6346
714555.5,4280345.48,232.38,6346
714555.37,4280345.38,232.4,6346
714555.92,4280345.45,232.38,6346
714557.29,4280346.16,232.34,6346
714557.4,4280346.18,232.33,6346
714558.13,4280345.65,232.36,6346
714558.96,4280345.13,232.4,6346
714558.8,4280345.86,232.43,6346
714558.31,4280346.0,232.37,6346
714559.14,4280345.48,232.44,6346
714558.6,4280346.23,232.43,6346
714559.15,4280345.74,232.42000000000002,6346
714558.85,4280345.8,232.44,6346
714559.39,4280345.26,232.41,6346
714559.72,4280345.29,232.44,6346
714559.99,4280344.96,232.41,6346
714560.4500000001,4280345.08,232.44,6346
714559.52,4280345.66,232.45000000000002,6346
714559.67,4280345.23,232.44,6346
714560.92,4280345.99,232.47,6346
714561.77,4280345.47,232.45000000000002,6346
714561.93,4280345.87,232.43,6346
714561.5,4280346.0200000005,232.42000000000002,6346
714562.12,4280346.05,232.43,6346
714561.99,4280346.0,232.44,6346
714562.63,4280344.94,232.38,6346
714562.87,4280345.3,232.36,6346
714562.34,4280345.5,232.43,6346
714563.1900000001,4280344.98,232.38,6346
714563.04,4280345.48,232.43,6346
714562.54,4280345.45,232.42000000000002,6346
714563.09,4280344.9,232.37,6346
714564.62,4280346.12,232.35,6346
714563.98,4280344.91,232.43,6346
714565.01,4280346.24,232.37,6346
714565.46,4280345.6,232.4,6346
714566.3,4280345.08,232.38,6346
714566.54,4280345.47,232.33,6346
714565.6,4280346.04,232.41,6346
714565.86,4280345.72,232.38,6346
714566.1900000001,4280345.87,232.4,6346
714566.39,4280345.62,232.33,6346
714565.2000000001,4280345.86,232.4,6346
714567.46,4280344.9,232.38,6346
714567.85,4280346.14,232.33,6346
714566.6900000001,4280345.2,232.38,6346
714567.12,4280345.3,232.4,6346
714567.12,4280344.9,232.39000000000001,6346
714568.6900000001,4280345.62,232.38,6346
714568.99,4280345.95,232.39000000000001,6346
714568.54,4280346.0600000005,232.38,6346
714569.39,4280345.54,232.42000000000002,6346
714569.36,4280345.97,232.37,6346
714568.99,4280345.47,232.37,6346
714568.47,4280345.98,232.41,6346
714569.54,4280345.1,232.36,6346
714569.91,4280345.38,232.42000000000002,6346
714570.24,4280345.4,232.6,6346
714569.96,4280345.34,232.44,6346
714571.53,4280346.23,232.48000000000002,6346
714552.3200000001,4280346.9,232.39000000000001,6346
714553.17,4280346.37,232.34,6346
714553.65,4280346.63,232.35,6346
714552.71,4280347.2,232.44,6346
714552.85,4280346.94,232.36,6346
714553.6900000001,4280346.42,232.36,6346
714553.14,4280347.17,232.36,6346
714553.43,4280346.67,232.35,6346
714552.65,4280347.04,232.41,6346
714553.35,4280346.35,232.35,6346
714554.77,4280347.71,232.37,6346
714554.0700000001,4280346.6,232.35,6346
714555.62,4280347.19,232.34,6346
714556.4500000001,4280346.68,232.34,6346
714556.02,4280347.58,232.39000000000001,6346
714555.77,4280347.5600000005,232.36,6346
714556.63,4280347.03,232.32,6346
714557.88,4280346.43,232.35,6346
714556.9500000001,4280347.01,232.34,6346
714557.46,4280346.5200000005,232.36,6346
714557.68,4280346.8,232.37,6346
714556.75,4280347.37,232.37,6346
714556.75,4280346.83,232.35,6346
714558.38,4280347.55,232.42000000000002,6346
714559.24,4280347.03,232.4,6346
714559.15,4280347.59,232.4,6346
714558.97,4280347.58,232.42000000000002,6346
714560.08,4280346.51,232.45000000000002,6346
714560.1,4280347.01,232.35,6346
714559.8200000001,4280347.0600000005,232.39000000000001,6346
714560.65,4280346.54,232.44,6346
714560.25,4280347.2,232.42000000000002,6346
714561.0,4280346.45,232.43,6346
714562.06,4280347.69,232.43,6346
714561.18,4280346.63,232.47,6346
714562.91,4280347.17,232.45000000000002,6346
714563.74,4280347.19,232.44,6346
714563.3200000001,4280347.2700000005,232.44,6346
714563.41,4280347.58,232.44,6346
714563.35,4280347.4,232.46,6346
714563.76,4280346.64,232.41,6346
714564.68,4280346.61,232.37,6346
714564.16,4280346.76,232.44,6346
714564.33,4280347.0200000005,232.44,6346
714564.67,4280346.38,232.43,6346
714564.14,4280346.91,232.44,6346
714563.9,4280346.86,232.43,6346
714565.28,4280347.71,232.43,6346
714566.14,4280347.19,232.36,6346
714566.1900000001,4280347.68,232.39000000000001,6346
714565.27,4280346.44,232.38,6346
714566.02,4280347.61,232.43,6346
714566.5700000001,4280347.69,232.42000000000002,6346
714566.99,4280346.67,232.41,6346
714567.11,4280347.11,232.44,6346
714566.86,4280347.09,232.42000000000002,6346
714567.7000000001,4280346.58,232.42000000000002,6346
714567.49,4280347.12,232.42000000000002,6346
714567.93,4280346.51,232.37,6346
714567.41,4280347.03,232.42000000000002,6346
714566.65,4280347.45,232.41,6346
714567.22,4280346.89,232.42000000000002,6346
714568.06,4280346.53,232.35,6346
714568.42,4280346.55,232.38,6346
714569.87,4280347.26,232.35,6346
714570.71,4280346.74,232.37,6346
714570.3200000001,4280347.47,232.34,6346
714570.56,4280347.29,232.4,6346
714570.43,4280346.93,232.41,6346
714569.89,4280347.47,232.38,6346
714571.23,4280346.9,232.39000000000001,6346
714571.4,4280346.7700000005,232.4,6346
714572.2000000001,4280346.66,232.47,6346
714571.3,4280347.22,232.39000000000001,6346
714571.64,4280346.72,232.33,6346
714572.49,4280347.65,232.4,6346
714573.46,4280347.6,232.35,6346
714572.9,4280347.6,232.37,6346
714555.1,4280348.14,232.37,6346
714554.93,4280348.08,232.36,6346
714554.88,4280348.5200000005,232.42000000000002,6346
714555.84,4280349.11,232.46,6346
714555.8200000001,4280347.95,232.38,6346
714556.4400000001,4280349.14,232.39000000000001,6346
714556.7000000001,4280348.59,232.38,6346
714557.55,4280348.07,232.34,6346
714557.3,4280348.73,232.37,6346
714557.29,4280348.62,232.37,6346
714557.47,4280348.92,232.39000000000001,6346
714557.3,4280348.51,232.37,6346
714557.99,4280347.82,232.33,6346
714558.24,4280348.16,232.34,6346
714558.14,4280348.1,232.34,6346
714559.3200000001,4280347.78,232.44,6346
714558.4,4280348.35,232.37,6346
714558.28,4280347.98,232.34,6346
714560.38,4280348.72,232.4,6346
714560.8,4280348.83,232.39000000000001,6346
714560.63,4280349.03,232.36,6346
714560.05,4280349.09,232.35,6346
714561.23,4280348.2,232.37,6346
714561.89,4280348.33,232.39000000000001,6346
714560.96,4280348.9,232.42000000000002,6346
714561.65,4280348.3,232.37,6346
714561.56,4280348.73,232.38,6346
714561.28,4280348.38,232.37,6346
714562.81,4280347.76,232.43,6346
714563.59,4280348.76,232.43,6346
714562.49,4280347.79,232.43,6346
714562.48,4280348.16,232.44,6346
714564.4400000001,4280348.23,232.41,6346
714564.3200000001,4280348.83,232.44,6346
714564.34,4280348.64,232.42000000000002,6346
714564.7000000001,4280348.84,232.45000000000002,6346
714565.26,4280348.25,232.41,6346
714565.17,4280348.13,232.44,6346
714565.62,4280348.2700000005,232.45000000000002,6346
714567.31,4280348.82,232.43,6346
714568.17,4280348.3,232.37,6346
714569.01,4280347.78,232.4,6346
714569.36,4280348.05,232.43,6346
714568.4400000001,4280348.62,232.37,6346
714568.02,4280348.84,232.45000000000002,6346
714568.87,4280348.32,232.42000000000002,6346
714568.53,4280348.92,232.44,6346
714569.36,4280347.99,232.41,6346
714568.63,4280348.34,232.43,6346
714570.79,4280348.69,232.42000000000002,6346
714569.71,4280347.8100000005,232.42000000000002,6346
714570.38,4280347.79,232.37,6346
714569.4500000001,4280348.36,232.43,6346
714571.65,4280348.17,232.39000000000001,6346
714571.59,4280348.75,232.36,6346
714571.22,4280348.64,232.37,6346
714572.05,4280348.12,232.42000000000002,6346
714571.4,4280348.93,232.38,6346
714572.24,4280348.4,232.4,6346
714571.6900000001,4280348.54,232.38,6346
714572.51,4280348.18,232.38,6346
714573.25,4280347.78,232.38,6346
714572.3200000001,4280348.36,232.39000000000001,6346
714572.78,4280347.87,232.37,6346
714572.26,4280347.97,232.41,6346
714574.59,4280348.84,232.37,6346
714575.0,4280349.07,232.37,6346
714574.72,4280348.85,232.4,6346
714574.6,4280348.97,232.38,6346
714575.37,4280348.82,232.41,6346
714556.38,4280349.3,232.4,6346
714556.53,4280349.5,232.42000000000002,6346
714557.8200000001,4280350.29,232.47,6346
714557.99,4280350.33,232.46,6346
714558.6900000001,4280349.76,232.37,6346
714559.11,4280350.05,232.37,6346
714558.28,4280350.38,232.41,6346
714559.13,4280349.86,232.38,6346
714558.77,4280350.45,232.37,6346
714558.64,4280350.48,232.38,6346
714559.35,4280349.79,232.38,6346
714559.54,4280349.25,232.33,6346
714560.05,4280349.47,232.33,6346
714559.98,4280349.34,232.35,6346
714560.63,4280349.3,232.37,6346
714559.7000000001,4280349.88,232.39000000000001,6346
714561.05,4280350.32,232.38,6346
714561.91,4280349.79,232.34,6346
714561.55,4280350.54,232.32,6346
714561.8200000001,4280350.2,232.37,6346
714561.93,4280350.5600000005,232.34,6346
714561.41,4280350.5600000005,232.4,6346
714562.11,4280349.86,232.34,6346
714562.75,4280349.2700000005,232.36,6346
714563.4,4280349.4,232.39000000000001,6346
714562.48,4280349.97,232.36,6346
714562.65,4280349.68,232.43,6346
714563.5,4280349.16,232.39000000000001,6346
714562.84,4280349.99,232.41,6346
714563.38,4280349.17,232.37,6346
714562.74,4280349.8100000005,232.41,6346
714564.79,4280350.38,232.38,6346
714563.78,4280349.41,232.39000000000001,6346
714564.93,4280350.3100000005,232.38,6346
714565.62,4280349.86,232.42000000000002,6346
714566.46,4280349.35,232.45000000000002,6346
714566.5700000001,4280349.7700000005,232.45000000000002,6346
714565.65,4280350.34,232.39000000000001,6346
714565.51,4280350.4,232.39000000000001,6346
714566.34,4280349.88,232.45000000000002,6346
714566.41,4280349.47,232.41,6346
714565.76,4280350.11,232.45000000000002,6346
714567.5,4280349.2,232.44,6346
714567.18,4280349.36,232.44,6346
714567.61,4280349.49,232.45000000000002,6346
714566.68,4280350.0600000005,232.45000000000002,6346
714567.5,4280349.45,232.46,6346
714568.25,4280350.25,232.47,6346
714569.1,4280349.73,232.43,6346
714568.78,4280350.47,232.46,6346
714568.67,4280350.2,232.45000000000002,6346
714569.96,4280349.21,232.38,6346
714570.64,4280349.32,232.43,6346
714569.71,4280349.9,232.44,6346
714569.52,4280349.67,232.43,6346
714570.37,4280349.16,232.41,6346
714570.48,4280349.49,232.39000000000001,6346
714569.54,4280350.07,232.45000000000002,6346
714572.05,4280350.39,232.37,6346
714572.2000000001,4280350.4,232.38,6346
714572.91,4280349.87,232.35,6346
714573.16,4280350.21,232.37,6346
714573.04,4280349.88,232.43,6346
714573.52,4280349.96,232.41,6346
714572.59,4280350.54,232.44,6346
714573.1,4280350.18,232.44,6346
714573.65,4280349.63,232.35,6346
714573.74,4280349.36,232.4,6346
714574.08,4280349.64,232.35,6346
714574.9400000001,4280350.36,232.36,6346
714573.88,4280349.37,232.41,6346
714574.4500000001,4280349.39,232.4,6346
714574.05,4280349.51,232.42000000000002,6346
714575.78,4280349.84,232.41,6346
714575.61,4280350.48,232.41,6346
714575.76,4280350.2,232.39000000000001,6346
714575.77,4280350.5200000005,232.4,6346
714575.99,4280350.33,232.4,6346
714576.63,4280349.32,232.44,6346
714576.54,4280349.9,232.4,6346
714576.6,4280349.69,232.39000000000001,6346
714576.6900000001,4280349.96,232.39000000000001,6346
714576.55,4280349.7700000005,232.38,6346
714558.15,4280350.62,232.59,6346
714560.21,4280350.84,232.37,6346
714560.61,4280351.12,232.39000000000001,6346
714560.14,4280351.24,232.37,6346
714562.25,4280351.94,232.37,6346
714560.98,4280350.72,232.39000000000001,6346
714560.99,4280351.13,232.38,6346
714563.11,4280351.41,232.33,6346
714562.99,4280351.95,232.37,6346
714563.51,4280351.72,232.34,6346
714563.9500000001,4280350.9,232.4,6346
714564.72,4280350.92,232.36,6346
714563.79,4280351.49,232.34,6346
714563.83,4280351.44,232.36,6346
714564.66,4280350.92,232.43,6346
714564.85,4280351.2,232.4,6346
714563.9400000001,4280351.76,232.33,6346
714564.22,4280351.01,232.36,6346
714565.73,4280351.8100000005,232.36,6346
714566.5700000001,4280351.29,232.37,6346
714565.78,4280350.63,232.38,6346
714566.15,4280351.75,232.42000000000002,6346
714567.41,4280350.7700000005,232.45000000000002,6346
714567.85,4280351.05,232.45000000000002,6346
714566.93,4280351.62,232.38,6346
714567.0,4280351.23,232.38,6346
714567.8200000001,4280350.72,232.45000000000002,6346
714567.6900000001,4280351.21,232.44,6346
714566.77,4280351.78,232.38,6346
714567.92,4280350.83,232.43,6346
714566.65,4280351.66,232.38,6346
714567.37,4280350.95,232.44,6346
714568.61,4280350.64,232.48000000000002,6346
714569.5,4280351.95,232.44,6346
714570.34,4280351.44,232.45000000000002,6346
714570.35,4280351.93,232.45000000000002,6346
714569.67,4280351.95,232.48000000000002,6346
714570.52,4280351.43,232.45000000000002,6346
714570.73,4280351.68,232.47,6346
714569.96,4280351.98,232.45000000000002,6346
714571.2000000001,4280350.91,232.43,6346
714572.23,4280350.78,232.38,6346
714571.28,4280351.36,232.45000000000002,6346
714571.36,4280350.92,232.44,6346
714571.66,4280351.11,232.44,6346
714572.37,4280351.93,232.42000000000002,6346
714573.23,4280351.41,232.38,6346
714573.22,4280351.76,232.44,6346
714573.3200000001,4280351.5,232.38,6346
714574.08,4280350.88,232.4,6346
714574.67,4280351.0600000005,232.42000000000002,6346
714573.74,4280351.63,232.38,6346
714574.08,4280351.24,232.38,6346
714574.91,4280350.72,232.39000000000001,6346
714574.84,4280351.1,232.43,6346
714573.91,4280351.67,232.41,6346
714576.21,4280351.96,232.44,6346
714577.06,4280351.44,232.42000000000002,6346
714577.91,4280350.92,232.39000000000001,6346
714577.5,4280351.65,232.4,6346
714576.89,4280351.79,232.41,6346
714577.74,4280351.28,232.38,6346
714577.15,4280351.96,232.38,6346
714577.73,4280351.38,232.43,6346
714578.4400000001,4280351.08,232.4,6346
714578.58,4280350.76,232.39000000000001,6346
714578.91,4280350.98,232.4,6346
714577.98,4280351.55,232.4,6346
714578.6,4280350.97,232.39000000000001,6346
714579.66,4280351.84,232.4,6346
714580.08,4280351.91,232.4,6346
714561.93,4280352.64,232.42000000000002,6346
714562.14,4280352.47,232.38,6346
714562.2000000001,4280352.18,232.36,6346
714562.86,4280352.0600000005,232.38,6346
714563.18,4280353.37,232.41,6346
714563.01,4280352.33,232.39000000000001,6346
714563.63,4280353.3,232.37,6346
714564.03,4280352.85,232.39000000000001,6346
714564.88,4280352.33,232.37,6346
714565.0700000001,4280352.76,232.4,6346
714564.14,4280353.34,232.38,6346
714564.46,4280352.79,232.39000000000001,6346
714564.92,4280352.92,232.39000000000001,6346
714564.59,4280352.7,232.39000000000001,6346
714564.0700000001,4280353.22,232.38,6346
714566.0,4280352.19,232.35,6346
714565.31,4280352.2700000005,232.36,6346
714565.85,4280352.35,232.37,6346
714567.83,4280352.99,232.37,6346
714567.9500000001,4280353.4,232.37,6346
714567.93,4280353.38,232.37,6346
714568.67,4280352.47,232.36,6346
714568.53,4280353.07,232.35,6346
714568.01,4280352.98,232.39000000000001,6346
714568.84,4280352.47,232.39000000000001,6346
714568.88,4280352.83,232.39000000000001,6346
714568.64,4280352.68,232.36,6346
714569.4400000001,4280352.5,232.39000000000001,6346
714570.67,4280352.97,232.45000000000002,6346
714569.8,4280352.26,232.43,6346
714570.7000000001,4280353.3100000005,232.44,6346
714570.28,4280353.24,232.42000000000002,6346
714571.52,4280352.45,232.43,6346
714571.86,4280352.79,232.45000000000002,6346
714570.9500000001,4280353.36,232.37,6346
714571.54,4280352.8,232.46,6346
714572.05,4280352.8100000005,232.46,6346
714571.13,4280353.38,232.44,6346
714572.01,4280352.79,232.47,6346
714571.43,4280352.72,232.44,6346
714572.79,4280352.21,232.46,6346
714572.38,4280352.28,232.44,6346
714572.98,4280352.24,232.46,6346
714572.68,4280352.14,232.44,6346
714574.52,4280353.0,232.44,6346
714574.6900000001,4280353.38,232.43,6346
714574.36,4280353.35,232.45000000000002,6346
714574.88,4280353.14,232.42000000000002,6346
714575.38,4280352.48,232.38,6346
714575.64,4280352.8,232.37,6346
714575.2000000001,4280352.83,232.45000000000002,6346
714576.05,4280352.3100000005,232.42000000000002,6346
714576.13,4280352.69,232.43,6346
714575.2000000001,4280353.26,232.44,6346
714575.54,4280352.49,232.39000000000001,6346
714576.56,4280352.23,232.41,6346
714577.11,4280353.4,232.38,6346
714577.05,4280352.12,232.41,6346
714577.87,4280353.19,232.42000000000002,6346
714577.9500000001,4280352.88,232.43,6346
714578.81,4280352.36,232.41,6346
714579.0,4280352.68,232.42000000000002,6346
714578.0700000001,4280353.25,232.4,6346
714578.38,4280352.95,232.41,6346
714579.23,4280352.43,232.4,6346
714578.46,4280353.24,232.42000000000002,6346
714579.93,4280352.11,232.4,6346
714580.3200000001,4280352.1,232.39000000000001,6346
714579.39,4280352.67,232.42000000000002,6346
714581.6,4280352.93,232.36,6346
714581.88,4280353.32,232.39000000000001,6346
714582.04,4280353.3100000005,232.38,6346
714582.25,4280353.08,232.34,6346
714582.7000000001,4280352.8,232.48000000000002,6346
714582.9500000001,4280353.07,232.49,6346
714564.0,4280353.49,232.38,6346
714565.28,4280354.55,232.44,6346
714566.14,4280354.03,232.38,6346
714565.74,4280354.78,232.42000000000002,6346
714565.48,4280354.53,232.41,6346
714566.3200000001,4280354.0200000005,232.41,6346
714566.09,4280354.55,232.39000000000001,6346
714566.39,4280354.18,232.4,6346
714565.55,4280354.62,232.43,6346
714566.09,4280354.08,232.41,6346
714566.99,4280353.51,232.34,6346
714567.6,4280353.64,232.35,6346
714566.67,4280354.21,232.4,6346
714567.17,4280353.5,232.34,6346
714567.02,4280353.98,232.41,6346
714566.91,4280353.66,232.38,6346
714568.14,4280354.54,232.35,6346
714568.98,4280354.0200000005,232.36,6346
714569.08,4280354.51,232.36,6346
714569.03,4280354.34,232.36,6346
714569.29,4280354.53,232.35,6346
714569.21,4280354.28,232.38,6346
714568.6900000001,4280354.8,232.4,6346
714568.62,4280354.61,232.35,6346
714569.18,4280354.0600000005,232.39000000000001,6346
714569.84,4280353.49,232.37,6346
714570.02,4280353.93,232.36,6346
714569.86,4280353.83,232.38,6346
714570.2000000001,4280353.96,232.4,6346
714570.7000000001,4280353.43,232.38,6346
714571.99,4280354.55,232.41,6346
714572.11,4280354.55,232.44,6346
714572.83,4280354.04,232.46,6346
714573.66,4280353.5200000005,232.49,6346
714572.83,4280354.53,232.39000000000001,6346
714572.68,4280354.38,232.44,6346
714573.51,4280353.87,232.47,6346
714573.35,4280354.4,232.44,6346
714573.25,4280354.2700000005,232.45000000000002,6346
714573.75,4280353.96,232.46,6346
714574.27,4280353.83,232.48000000000002,6346
714574.23,4280353.79,232.49,6346
714573.98,4280353.5600000005,232.49,6346
714575.41,4280354.44,232.46,6346
714576.27,4280353.92,232.43,6346
714576.2000000001,4280354.41,232.44,6346
714575.83,4280354.5200000005,232.44,6346
714575.53,4280354.82,232.42000000000002,6346
714576.25,4280354.11,232.43,6346
714577.14,4280353.83,232.4,6346
714576.68,4280354.0,232.45000000000002,6346
714577.53,4280353.48,232.44,6346
714577.54,4280353.8100000005,232.4,6346
714576.61,4280354.38,232.47,6346
714579.05,4280354.5,232.37,6346
714579.9,4280353.97,232.41,6346
714580.36,4280354.23,232.44,6346
714579.43,4280354.8100000005,232.38,6346
