741560.42,4309843.03,158.45000000000002,6346
741561.71,4309842.93,158.49,6346
741560.9,4309843.38,158.41,6346
741561.25,4309842.57,158.5,6346
741562.15,4309843.3,158.47,6346
741562.53,4309842.48,158.5,6346
741562.64,4309843.38,158.47,6346
741563.47,4309842.92,158.51,6346
741562.96,4309842.85,158.48,6346
741564.3,4309842.46,158.53,6346
741564.68,4309843.2,158.56,6346
741563.77,4309842.4,158.58,6346
741564.3200000001,4309843.23,158.54,6346
741565.14,4309842.7700000005,158.58,6346
741566.31,4309842.3,158.63,6346
741565.49,4309842.75,158.56,6346
741566.58,4309843.47,158.57,6346
741565.97,4309842.32,158.6,6346
741566.47,4309843.13,158.56,6346
741565.65,4309843.58,158.55,6346
741567.41,4309843.01,158.6,6346
741567.29,4309842.68,158.6,6346
741568.24,4309842.5600000005,158.64000000000001,6346
741569.39,4309843.2700000005,158.63,6346
741568.1,4309842.23,158.63,6346
741568.02,4309843.61,158.62,6346
741568.83,4309843.16,158.66,6346
741570.2000000001,4309842.82,158.67000000000002,6346
741570.61,4309843.59,158.67000000000002,6346
741569.66,4309842.71,158.69,6346
741570.48,4309842.25,158.72,6346
741570.72,4309843.29,158.69,6346
741571.03,4309842.37,158.70000000000002,6346
741571.4400000001,4309843.14,158.70000000000002,6346
741571.53,4309842.84,158.71,6346
741572.26,4309842.68,158.76,6346
741573.09,4309842.23,158.76,6346
741572.34,4309842.39,158.75,6346
741572.5,4309843.42,158.72,6346
741573.3200000001,4309842.96,158.79,6346
741574.91,4309842.44,158.79,6346
741574.08,4309842.89,158.82,6346
741574.15,4309842.51,158.78,6346
741538.62,4309844.92,157.66,6346
741539.4400000001,4309844.47,157.75,6346
741539.91,4309844.88,157.73,6346
741540.73,4309844.42,157.79,6346
741541.0700000001,4309844.76,157.75,6346
741541.9,4309844.3,157.78,6346
741541.56,4309843.97,157.87,6346
741542.08,4309844.97,157.84,6346
741542.72,4309843.86,157.81,6346
741543.15,4309844.86,157.82,6346
741543.71,4309844.08,157.83,6346
741542.9,4309844.5200000005,157.83,6346
741543.97,4309844.41,157.84,6346
741544.8,4309843.96,157.87,6346
741544.9,4309844.74,157.88,6346
741544.68,4309844.7700000005,157.88,6346
741546.54,4309843.84,157.92000000000002,6346
741545.71,4309844.29,157.91,6346
741545.51,4309844.3100000005,157.91,6346
741546.34,4309843.86,157.93,6346
741546.02,4309844.82,157.92000000000002,6346
741546.98,4309844.8100000005,157.95000000000002,6346
741547.8200000001,4309844.36,157.97,6346
741547.66,4309843.92,157.96,6346
741546.84,4309844.37,157.95000000000002,6346
741548.64,4309843.91,158.0,6346
741548.37,4309845.03,158.02,6346
741549.2000000001,4309844.57,158.04,6346
741550.65,4309844.25,158.07,6346
741549.8200000001,4309844.7,158.04,6346
741550.02,4309844.12,158.06,6346
741550.84,4309843.67,158.1,6346
741551.47,4309843.8,158.1,6346
741551.39,4309844.93,158.1,6346
741552.22,4309844.47,158.14000000000001,6346
741552.18,4309844.21,158.14000000000001,6346
741551.37,4309844.66,158.09,6346
741553.05,4309844.01,158.14000000000001,6346
741553.02,4309844.92,158.20000000000002,6346
741553.0,4309843.76,158.16,6346
741553.03,4309844.8,158.23,6346
741554.66,4309844.0200000005,158.21,6346
741553.84,4309844.47,158.23,6346
741553.86,4309844.35,158.21,6346
741554.68,4309843.9,158.24,6346
741554.43,4309844.89,158.26,6346
741555.42,4309844.96,158.24,6346
741556.24,4309844.51,158.33,6346
741556.06,4309843.99,158.32,6346
741555.24,4309844.44,158.3,6346
741557.0700000001,4309844.05,158.33,6346
741557.13,4309844.85,158.29,6346
741557.9500000001,4309844.39,158.33,6346
741559.26,4309844.28,158.33,6346
741558.4400000001,4309844.73,158.32,6346
741558.78,4309843.93,158.42000000000002,6346
741560.08,4309843.83,158.39000000000001,6346
741560.17,4309844.73,158.38,6346
741560.53,4309844.19,158.41,6346
741559.72,4309844.64,158.38,6346
741561.0,4309844.28,158.41,6346
741561.8200000001,4309843.83,158.45000000000002,6346
741562.23,4309844.55,158.44,6346
741561.41,4309845.0,158.4,6346
741561.34,4309843.75,158.43,6346
741561.03,4309845.04,158.4,6346
741561.85,4309844.59,158.42000000000002,6346
741563.04,4309844.1,158.48,6346
741562.67,4309844.13,158.45000000000002,6346
741563.5,4309843.68,158.49,6346
741563.2000000001,4309844.94,158.44,6346
741563.86,4309843.65,158.51,6346
741564.1,4309844.83,158.49,6346
741564.93,4309844.38,158.5,6346
741564.83,4309844.04,158.5,6346
741564.02,4309844.49,158.49,6346
741565.75,4309843.92,158.54,6346
741565.55,4309844.97,158.51,6346
741566.37,4309844.5200000005,158.56,6346
741567.75,4309844.18,158.57,6346
741566.93,4309844.63,158.57,6346
741567.1900000001,4309844.07,158.6,6346
741568.5700000001,4309843.72,158.6,6346
741568.97,4309844.5,158.6,6346
741569.08,4309844.2,158.65,6346
741568.26,4309844.65,158.63,6346
741569.8,4309844.04,158.64000000000001,6346
741569.9,4309843.74,158.65,6346
741531.75,4309846.45,158.26,6346
741533.63,4309846.37,157.48,6346
741533.51,4309846.28,157.69,6346
741534.4500000001,4309845.91,157.62,6346
741534.55,4309846.46,157.54,6346
741536.13,4309846.28,157.57,6346
741536.18,4309845.57,157.61,6346
741535.37,4309846.0200000005,157.56,6346
741536.96,4309845.83,157.61,6346
741537.79,4309845.38,157.65,6346
741537.0,4309845.12,157.67000000000002,6346
741537.4400000001,4309846.23,157.61,6346
741539.4400000001,4309845.65,157.68,6346
741538.61,4309846.11,157.66,6346
741538.27,4309845.78,157.64000000000001,6346
741539.09,4309845.33,157.70000000000002,6346
741540.26,4309845.2,157.73,6346
741540.67,4309846.21,157.8,6346
741540.4500000001,4309845.87,157.73,6346
741539.63,4309846.32,157.70000000000002,6346
741541.49,4309845.76,157.81,6346
741541.26,4309845.42,157.82,6346
741542.31,4309845.3100000005,157.84,6346
741542.43,4309846.08,157.86,6346
741542.2000000001,4309846.13,157.85,6346
741543.26,4309845.63,157.88,6346
741543.03,4309845.67,157.87,6346
741543.85,4309845.22,157.85,6346
741543.5700000001,4309846.16,157.84,6346
741544.08,4309845.18,157.86,6346
741544.5,4309846.17,157.88,6346
741545.21,4309845.26,157.91,6346
741544.39,4309845.71,157.87,6346
741545.33,4309845.72,157.91,6346
741546.16,4309845.26,157.93,6346
741545.9,4309846.38,157.94,6346
741547.36,4309846.05,157.96,6346
741546.73,4309845.93,157.96,6346
741547.55,4309845.48,158.0,6346
741548.11,4309846.45,158.03,6346
741549.0,4309845.15,158.01,6346
741548.1900000001,4309845.6,158.0,6346
741548.89,4309846.29,158.09,6346
741548.92,4309846.0,158.06,6346
741549.72,4309845.84,158.1,6346
741550.55,4309845.38,158.09,6346
741550.5700000001,4309846.2700000005,158.06,6346
741550.55,4309845.11,158.08,6346
741549.74,4309845.55,158.05,6346
741550.5700000001,4309846.16,158.11,6346
741552.2000000001,4309845.37,158.20000000000002,6346
741551.38,4309845.82,158.16,6346
741551.39,4309845.71,158.16,6346
741552.21,4309845.25,158.17000000000002,6346
741551.98,4309846.24,158.11,6346
741552.9400000001,4309846.32,158.15,6346
741553.77,4309845.87,158.16,6346
741553.61,4309845.34,158.24,6346
741552.79,4309845.79,158.17000000000002,6346
741554.59,4309845.42,158.18,6346
741554.66,4309846.2,158.23,6346
741555.98,4309846.09,158.22,6346
741555.48,4309845.75,158.22,6346
741556.3,4309845.3,158.27,6346
741556.48,4309846.43,158.26,6346
741557.63,4309845.18,158.29,6346
741556.8,4309845.63,158.24,6346
741557.6900000001,4309846.1,158.27,6346
741557.29,4309845.98,158.28,6346
741558.52,4309845.64,158.31,6346
741559.34,4309845.19,158.34,6346
741558.9500000001,4309846.36,158.29,6346
741558.91,4309845.09,158.33,6346
741558.1,4309845.54,158.32,6346
741558.55,4309846.41,158.3,6346
741559.38,4309845.95,158.34,6346
741560.59,4309845.46,158.35,6346
741559.76,4309845.91,158.32,6346
741560.2000000001,4309845.49,158.38,6346
741560.75,4309846.29,158.35,6346
741561.62,4309846.2,158.37,6346
741561.5700000001,4309845.84,158.39000000000001,6346
741562.4400000001,4309845.75,158.4,6346
741563.27,4309845.29,158.44,6346
741562.39,4309845.39,158.41,6346
741563.08,4309846.33,158.42000000000002,6346
741564.47,4309845.99,158.44,6346
741563.91,4309845.88,158.46,6346
741564.73,4309845.42,158.53,6346
741566.11,4309845.08,158.5,6346
741565.29,4309845.53,158.47,6346
741567.4400000001,4309845.1,158.57,6346
741529.3,4309847.84,157.32,6346
741529.08,4309847.35,157.58,6346
741528.27,4309847.8,157.34,6346
741530.13,4309847.38,157.35,6346
741530.96,4309846.93,157.47,6346
741531.05,4309847.64,157.41,6346
741531.99,4309847.2700000005,157.41,6346
741531.17,4309847.71,157.39000000000001,6346
741531.87,4309847.19,157.44,6346
741532.11,4309847.8100000005,157.41,6346
741532.81,4309846.8100000005,157.45000000000002,6346
741533.65,4309847.64,157.49,6346
741532.6900000001,4309846.74,157.51,6346
741533.74,4309846.91,157.48,6346
741532.92,4309847.36,157.47,6346
741534.48,4309847.19,157.5,6346
741535.31,4309846.73,157.54,6346
741534.97,4309847.58,157.56,6346
741536.16,4309847.45,157.56,6346
741535.79,4309847.13,157.55,6346
741536.62,4309846.68,157.6,6346
741537.79,4309846.5600000005,157.63,6346
741536.98,4309847.0,157.57,6346
741538.0,4309847.22,157.64000000000001,6346
741537.18,4309847.67,157.62,6346
741538.1900000001,4309847.57,157.65,6346
741539.01,4309847.12,157.68,6346
741539.16,4309847.88,157.70000000000002,6346
741538.8200000001,4309846.7700000005,157.68,6346
741539.85,4309846.66,157.70000000000002,6346
741540.8,4309846.98,157.74,6346
741539.98,4309847.43,157.73,6346
741539.72,4309847.49,157.71,6346
741540.54,4309847.04,157.74,6346
741541.37,4309846.58,157.77,6346
741541.12,4309847.51,157.77,6346
741541.62,4309846.53,157.78,6346
741542.02,4309847.53,157.81,6346
741541.9400000001,4309847.0600000005,157.8,6346
741542.85,4309847.08,157.83,6346
741543.67,4309846.63,157.86,6346
741542.75,4309846.61,157.85,6346
741543.42,4309847.74,157.91,6346
741544.9,4309847.4,157.95000000000002,6346
741544.08,4309847.86,157.91,6346
741544.25,4309847.28,157.88,6346
741545.08,4309846.83,157.92000000000002,6346
741546.54,4309846.51,157.95000000000002,6346
741545.72,4309846.95,157.92000000000002,6346
741546.39,4309847.66,157.92000000000002,6346
741546.48,4309847.35,157.97,6346
741545.66,4309847.8,157.9,6346
741547.22,4309847.21,158.03,6346
741548.06,4309846.75,158.03,6346
741548.1,4309847.63,157.96,6346
741547.29,4309846.9,158.02,6346
741548.1,4309847.5200000005,158.0,6346
741548.93,4309847.17,158.0,6346
741548.92,4309847.07,158.02,6346
741549.53,4309847.59,158.01,6346
741549.75,4309846.72,158.03,6346
741550.46,4309847.68,158.03,6346
741549.74,4309846.61,158.11,6346
741550.34,4309847.14,158.05,6346
741551.28,4309847.23,158.05,6346
741552.11,4309846.78,158.11,6346
741551.17,4309846.69,158.09,6346
741552.18,4309847.57,158.12,6346
741553.53,4309847.44,158.13,6346
741552.71,4309847.89,158.08,6346
741553.01,4309847.11,158.13,6346
741555.17,4309846.54,158.19,6346
741554.35,4309846.99,158.15,6346
741555.21,4309847.46,158.17000000000002,6346
741553.83,4309846.66,158.14000000000001,6346
741554.85,4309847.33,158.18,6346
741554.04,4309847.78,158.15,6346
741556.04,4309847.01,158.20000000000002,6346
741556.49,4309847.72,158.21,6346
741555.66,4309846.88,158.21,6346
741556.08,4309847.76,158.19,6346
741556.86,4309846.55,158.27,6346
741557.31,4309847.26,158.23,6346
741556.91,4309847.3100000005,158.25,6346
741557.73,4309846.86,158.27,6346
741558.13,4309846.8100000005,158.28,6346
741559.13,4309847.57,158.28,6346
741559.12,4309847.19,158.28,6346
741558.3,4309847.65,158.27,6346
741559.96,4309847.11,158.32,6346
741560.79,4309846.66,158.33,6346
741559.9400000001,4309846.74,158.31,6346
741562.26,4309846.79,158.41,6346
741525.3200000001,4309848.7700000005,157.3,6346
741524.52,4309849.22,157.16,6346
741524.22,4309848.96,157.26,6346
741526.1,4309848.3,158.07,6346
741526.65,4309848.7,157.23,6346
741525.83,4309849.14,157.20000000000002,6346
741526.8200000001,4309849.2,157.24,6346
741527.65,4309848.74,157.26,6346
741527.46,4309848.25,157.26,6346
741528.48,4309848.29,157.29,6346
741529.52,4309848.62,157.31,6346
741528.7000000001,4309849.07,157.29,6346
741528.58,4309848.99,157.3,6346
741529.4,4309848.54,157.32,6346
741530.34,4309848.17,157.39000000000001,6346
741530.22,4309848.09,157.36,6346
741530.48,4309848.7,157.37,6346
741529.66,4309849.15,157.33,6346
741531.17,4309848.99,157.39000000000001,6346
741532.0,4309848.54,157.43,6346
741531.3,4309848.25,157.4,6346
741532.8200000001,4309848.09,157.46,6346
741533.6900000001,4309848.8,157.48,6346
741532.88,4309849.25,157.46,6346
741532.5,4309848.93,157.45000000000002,6346
741533.3200000001,4309848.48,157.48,6346
741535.34,4309847.9,157.55,6346
741534.52,4309848.35,157.52,6346
741534.15,4309848.03,157.51,6346
741534.73,4309849.01,157.53,6346
741535.71,4309848.92,157.57,6346
741536.54,4309848.47,157.58,6346
741536.7000000001,4309849.23,157.61,6346
741536.37,4309848.12,157.57,6346
741535.55,4309848.5600000005,157.56,6346
741536.41,4309849.3,157.6,6346
741537.37,4309848.0200000005,157.62,6346
741537.52,4309848.78,157.64000000000001,6346
741537.23,4309848.85,157.62,6346
741538.06,4309848.4,157.65,6346
741537.85,4309849.3100000005,157.69,6346
741538.34,4309848.33,157.66,6346
741539.53,4309848.89,157.74,6346
741538.89,4309847.94,157.68,6346
741539.49,4309848.41,157.77,6346
741538.67,4309848.86,157.71,6346
741540.36,4309848.44,157.74,6346
741540.31,4309847.96,157.73,6346
741540.9500000001,4309849.09,157.84,6346
741541.1900000001,4309847.98,157.77,6346
741541.62,4309849.21,157.78,6346
741541.77,4309848.64,157.85,6346
741543.25,4309848.3100000005,157.88,6346
741542.4400000001,4309848.76,157.86,6346
741542.6,4309848.19,157.87,6346
741543.21,4309849.15,157.83,6346
741543.9,4309849.03,157.84,6346
741544.73,4309848.57,157.88,6346
741544.85,4309848.25,157.87,6346
741544.03,4309848.7,157.87,6346
741545.5700000001,4309848.12,157.91,6346
741546.48,4309848.5200000005,157.88,6346
741545.65,4309848.97,157.87,6346
741545.63,4309848.88,157.92000000000002,6346
741546.4500000001,4309848.42,157.94,6346
741547.29,4309848.07,157.94,6346
741547.98,4309849.04,157.93,6346
741547.28,4309847.97,157.97,6346
741547.9,4309848.49,157.96,6346
741547.09,4309848.94,157.91,6346
741548.8,4309848.59,157.97,6346
741548.72,4309848.04,158.0,6346
741549.63,4309848.14,158.02,6346
741550.26,4309849.24,158.0,6346
741549.71,4309848.93,157.99,6346
741550.53,4309848.47,158.04,6346
741551.89,4309848.34,158.04,6346
741551.08,4309848.79,158.02,6346
741551.91,4309849.28,158.05,6346
741551.36,4309848.0200000005,158.06,6346
741551.61,4309849.12,158.03,6346
741552.73,4309848.82,158.09,6346
741553.55,4309848.37,158.11,6346
741553.24,4309848.22,158.11,6346
741552.42,4309848.67,158.09,6346
741553.61,4309849.13,158.09,6346
741554.38,4309847.92,158.14000000000001,6346
741554.85,4309848.62,158.15,6346
741554.03,4309849.08,158.12,6346
741554.43,4309848.68,158.15,6346
741555.67,4309848.17,158.18,6346
741555.25,4309848.22,158.18,6346
741557.49,4309848.09,158.23,6346
741556.67,4309848.55,158.19,6346
741558.31,4309848.0200000005,158.24,6346
741520.29,4309850.3,157.15,6346
741522.06,4309850.5600000005,157.05,6346
741521.74,4309850.32,157.05,6346
741523.7000000001,4309849.67,157.12,6346
741522.88,4309850.12,157.07,6346
741522.5700000001,4309849.87,157.1,6346
741523.4,4309849.42,157.16,6346
741523.39,4309850.48,157.11,6346
741524.33,4309850.55,157.14000000000001,6346
741525.16,4309850.1,157.16,6346
741525.01,4309849.59,157.20000000000002,6346
741524.2000000001,4309850.04,157.13,6346
741525.99,4309849.65,157.18,6346
741526.23,4309850.42,157.21,6346
741526.1,4309850.35,157.21,6346
741527.87,4309849.5200000005,157.27,6346
741527.05,4309849.97,157.25,6346
741526.93,4309849.9,157.23,6346
741527.75,4309849.44,157.27,6346
741528.04,4309850.04,157.3,6346
741527.23,4309850.48,157.25,6346
741528.68,4309850.35,157.29,6346
741529.52,4309849.9,157.35,6346
741528.85,4309849.59,157.3,6346
741530.34,4309849.45,157.36,6346
741530.42,4309850.6,157.36,6346
741530.02,4309850.29,157.35,6346
741530.85,4309849.84,157.38,6346
741532.06,4309849.7,157.44,6346
741531.23,4309850.15,157.41,6346
741532.4,4309850.73,157.43,6346
741531.67,4309849.38,157.42000000000002,6346
741532.28,4309850.36,157.44,6346
741533.23,4309850.28,157.47,6346
741533.91,4309849.47,157.48,6346
741533.1,4309849.91,157.47,6346
741534.06,4309849.83,157.5,6346
741534.88,4309849.38,157.53,6346
741535.06,4309850.13,157.58,6346
741534.24,4309850.58,157.55,6346
741533.92,4309850.67,157.56,6346
741534.75,4309850.21,157.57,6346
741535.88,4309849.68,157.58,6346
741536.23,4309850.7,157.58,6346
741535.58,4309849.76,157.56,6346
741536.22,4309850.2,157.63,6346
741535.39,4309850.66,157.59,6346
741537.05,4309850.24,157.68,6346
741537.88,4309849.79,157.68,6346
741537.04,4309849.75,157.65,6346
741538.71,4309849.34,157.72,6346
741539.16,4309850.5600000005,157.67000000000002,6346
741538.48,4309850.45,157.66,6346
741539.3,4309850.0,157.74,6346
741540.8,4309849.66,157.75,6346
741539.98,4309850.11,157.70000000000002,6346
741540.13,4309849.54,157.78,6346
741540.77,4309850.5,157.71,6346
741541.41,4309850.4,157.73,6346
741542.24,4309849.94,157.79,6346
741542.4,4309849.59,157.8,6346
741541.59,4309850.04,157.74,6346
741542.34,4309850.69,157.76,6346
741543.08,4309849.48,157.82,6346
741543.1900000001,4309850.33,157.79,6346
741543.16,4309850.24,157.79,6346
741544.83,4309849.43,157.85,6346
741544.02,4309849.87,157.83,6346
741543.98,4309849.78,157.83,6346
741544.81,4309849.33,157.86,6346
741544.64,4309850.29,157.86,6346
741545.5,4309850.41,157.83,6346
741546.33,4309849.95,157.87,6346
741546.27,4309849.39,157.89000000000001,6346
741545.46,4309849.84,157.86,6346
741547.16,4309849.5,157.9,6346
741547.8,4309850.6,157.86,6346
741547.24,4309850.29,157.88,6346
741548.06,4309849.84,157.91,6346
741549.43,4309849.7,157.96,6346
741548.62,4309850.15,157.92000000000002,6346
741549.43,4309850.64,157.93,6346
741548.89,4309849.38,157.97,6346
741549.18,4309850.47,157.94,6346
741550.24,4309850.19,157.98,6346
741550.79,4309849.57,158.02,6346
741549.99,4309850.0200000005,157.98,6346
741551.08,4309849.73,158.03,6346
741551.9500000001,4309850.04,158.09,6346
741553.21,4309849.53,158.09,6346
741552.39,4309849.98,158.04,6346
741552.79,4309849.58,158.08,6346
741515.39,4309851.7700000005,156.86,6346
741516.13,4309851.99,156.85,6346
741516.99,4309852.11,156.88,6346
741517.81,4309851.66,156.92000000000002,6346
741517.76,4309851.09,156.96,6346
741516.9400000001,4309851.54,156.89000000000001,6346
741518.64,4309851.21,156.93,6346
741519.47,4309850.76,156.99,6346
741519.6,4309851.91,156.99,6346
741518.43,4309852.13,156.93,6346
741519.27,4309851.68,156.96,6346
741520.43,4309851.46,157.0,6346
741520.1,4309851.23,156.98,6346
741520.92,4309850.7700000005,157.06,6346
741520.9400000001,4309851.82,157.03,6346
741521.24,4309851.01,157.08,6346
741521.84,4309851.91,157.06,6346
741521.75,4309851.38,157.06,6346
741522.67,4309851.46,157.07,6346
741523.5,4309851.01,157.1,6346
741523.75,4309851.78,157.11,6346
741522.58,4309850.93,157.09,6346
741522.8,4309852.15,157.1,6346
741523.63,4309851.7,157.11,6346
741524.58,4309851.32,157.14000000000001,6346
741524.4500000001,4309851.25,157.15,6346
741525.28,4309850.8,157.20000000000002,6346
741524.78,4309851.83,157.15,6346
741525.4,4309850.87,157.20000000000002,6346
741526.2000000001,4309851.71,157.22,6346
741526.41,4309850.93,157.23,6346
741525.59,4309851.38,157.21,6346
741526.73,4309852.09,157.24,6346
741527.03,4309851.25,157.26,6346
741527.85,4309850.8,157.27,6346
741527.96,4309851.95,157.29,6346
741527.55,4309851.64,157.28,6346
741529.61,4309851.04,157.34,6346
741528.78,4309851.5,157.32,6346
741528.38,4309851.19,157.3,6346
741529.2000000001,4309850.74,157.34,6346
741529.01,4309852.15,157.38,6346
741529.92,4309852.09,157.4,6346
741530.75,4309851.63,157.44,6346
741530.64,4309851.26,157.41,6346
741529.83,4309851.71,157.39000000000001,6346
741531.5700000001,4309851.19,157.43,6346
741531.78,4309851.93,157.41,6346
741531.46,4309850.8100000005,157.44,6346
741531.43,4309852.04,157.4,6346
741532.26,4309851.58,157.49,6346
741533.42,4309851.03,157.55,6346
741532.6,4309851.48,157.5,6346
741533.75,4309852.05,157.48,6346
741533.09,4309851.12,157.51,6346
741533.77,4309851.55,157.47,6346
741532.96,4309852.0,157.45000000000002,6346
741534.58,4309851.6,157.53,6346
741534.59,4309851.11,157.52,6346
741535.4,4309851.15,157.54,6346
741536.6900000001,4309851.92,157.56,6346
741536.0,4309851.8100000005,157.54,6346
741537.51,4309851.47,157.59,6346
741536.83,4309851.35,157.59,6346
741537.66,4309850.9,157.61,6346
741538.34,4309851.01,157.62,6346
741538.92,4309851.76,157.62,6346
741539.14,4309851.39,157.64000000000001,6346
741538.33,4309851.84,157.61,6346
741539.75,4309851.3100000005,157.67000000000002,6346
741540.58,4309850.85,157.70000000000002,6346
741540.74,4309851.68,157.66,6346
741539.92,4309852.13,157.62,6346
741539.9500000001,4309850.95,157.67000000000002,6346
741539.87,4309852.05,157.65,6346
741540.68,4309851.6,157.71,6346
741541.51,4309851.14,157.79,6346
741541.38,4309852.09,157.71,6346
741542.38,4309850.78,157.74,6346
741541.55,4309851.23,157.78,6346
741542.1900000001,4309851.64,157.75,6346
741543.02,4309851.7700000005,157.73,6346
741543.85,4309851.3100000005,157.79,6346
741543.8200000001,4309850.74,157.81,6346
741543.01,4309851.19,157.79,6346
741544.67,4309850.86,157.82,6346
741543.93,4309852.11,157.78,6346
741544.76,4309851.65,157.8,6346
741546.16,4309851.5,157.88,6346
741545.34,4309851.95,157.85,6346
741545.58,4309851.2,157.8,6346
741546.42,4309850.74,157.84,6346
741546.98,4309851.05,157.85,6346
741547.55,4309851.36,157.9,6346
741546.74,4309851.8100000005,157.9,6346
741548.6,4309851.09,157.91,6346
741548.36,4309850.92,157.92000000000002,6346
741510.83,4309853.39,156.64000000000001,6346
741512.09,4309853.57,156.72,6346
741511.76,4309853.57,156.71,6346
741512.58,4309853.12,156.76,6346
741513.75,4309852.67,156.76,6346
741512.92,4309853.12,156.75,6346
741513.41,4309852.67,156.77,6346
741513.6900000001,4309853.33,156.76,6346
741514.5700000001,4309852.22,156.79,6346
741514.5,4309853.46,156.8,6346
741515.33,4309853.0200000005,156.81,6346
741514.24,4309852.21,156.82,6346
741515.3200000001,4309852.43,156.81,6346
741514.5,4309852.88,156.78,6346
741516.16,4309852.5600000005,156.88,6346
741515.96,4309853.48,156.84,6346
741516.79,4309853.03,156.87,6346
741517.97,4309852.8,156.92000000000002,6346
741517.15,4309853.25,156.89000000000001,6346
741517.61,4309852.58,156.91,6346
741518.79,4309852.35,156.94,6346
741519.34,4309853.2700000005,156.97,6346
741519.31,4309852.72,156.97,6346
741518.5,4309853.16,156.96,6346
741520.17,4309852.82,157.0,6346
741521.01,4309852.36,157.03,6346
741520.13,4309852.2700000005,157.0,6346
741520.33,4309853.5,157.01,6346
741522.1,4309852.67,157.08,6346
741521.28,4309853.13,157.02,6346
741521.16,4309853.05,157.04,6346
741521.98,4309852.6,157.05,6346
741522.34,4309853.17,157.06,6346
741522.93,4309852.22,157.11,6346
741522.88,4309853.5200000005,157.1,6346
741523.71,4309853.07,157.13,6346
741523.97,4309852.2700000005,157.16,6346
741523.15,4309852.72,157.12,6346
741524.54,4309852.62,157.16,6346
741525.36,4309852.16,157.20000000000002,6346
741524.25,4309853.45,157.19,6346
741525.0700000001,4309852.99,157.24,6346
741526.3200000001,4309852.84,157.26,6346
741525.49,4309853.3,157.24,6346
741525.9,4309852.54,157.22,6346
741526.56,4309853.5,157.23,6346
741527.14,4309852.39,157.3,6346
741527.4400000001,4309853.45,157.25,6346
741528.1900000001,4309852.61,157.36,6346
741527.37,4309853.05,157.3,6346
741528.27,4309852.99,157.29,6346
741529.09,4309852.54,157.36,6346
741529.3200000001,4309853.28,157.32,6346
741528.9400000001,4309853.4,157.31,6346
741530.96,4309852.38,157.37,6346
741530.13,4309852.83,157.37,6346
741529.78,4309852.94,157.34,6346
741530.6,4309852.49,157.38,6346
741530.51,4309853.35,157.34,6346
741531.27,4309853.41,157.37,6346
741532.1,4309852.96,157.41,6346
741532.13,4309852.45,157.43,6346
741531.3200000001,4309852.9,157.39000000000001,6346
741532.92,4309852.51,157.43,6346
741533.54,4309853.16,157.46,6346
741535.05,4309852.83,157.5,6346
741534.22,4309853.28,157.46,6346
741534.36,4309852.71,157.47,6346
741535.18,4309852.26,157.52,6346
741535.87,4309852.37,157.53,6346
741536.43,4309853.13,157.52,6346
741536.6900000001,4309852.74,157.55,6346
741535.88,4309853.19,157.51,6346
741537.25,4309852.68,157.56,6346
741538.09,4309852.22,157.58,6346
741537.46,4309853.48,157.53,6346
741537.51,4309852.29,157.58,6346
741537.39,4309853.41,157.56,6346
741539.1,4309852.58,157.6,6346
741538.28,4309853.03,157.53,6346
741538.22,4309852.95,157.6,6346
741539.04,4309852.5,157.64000000000001,6346
741538.93,4309853.44,157.6,6346
741540.54,4309853.13,157.63,6346
741540.56,4309852.54,157.68,6346
741539.75,4309852.99,157.63,6346
741541.36,4309852.68,157.67000000000002,6346
741541.4500000001,4309853.47,157.84,6346
741542.1900000001,4309852.22,157.70000000000002,6346
741542.28,4309853.01,157.78,6346
741543.68,4309852.85,157.97,6346
741543.11,4309852.5600000005,157.76,6346
741544.51,4309852.4,157.84,6346
741505.37,4309854.98,156.45000000000002,6346
741506.1900000001,4309854.53,156.49,6346
741508.34,4309854.75,156.54,6346
741508.28,4309854.13,156.59,6346
741507.47,4309854.58,156.55,6346
741509.18,4309854.3,156.58,6346
741509.62,4309854.92,156.62,6346
741509.27,4309854.93,156.64000000000001,6346
741510.0,4309853.84,156.63,6346
741510.4500000001,4309854.47,156.64000000000001,6346
741510.09,4309854.48,156.65,6346
741510.92,4309854.03,156.65,6346
741511.27,4309854.0200000005,156.69,6346
741512.02,4309854.82,156.72,6346
741512.06,4309854.22,156.71,6346
741511.23,4309854.67,156.69,6346
741512.84,4309854.37,156.75,6346
741513.68,4309853.91,156.77,6346
741512.87,4309853.7700000005,156.75,6346
741513.47,4309854.84,156.77,6346
741514.68,4309854.6,156.79,6346
741514.3,4309854.39,156.8,6346
741515.13,4309853.93,156.83,6346
741515.23,4309854.95,156.84,6346
741516.3200000001,4309853.7,156.86,6346
741515.51,4309854.15,156.84,6346
741516.86,4309854.63,156.87,6346
741516.86,4309854.0600000005,156.88,6346
741516.04,4309854.51,156.86,6346
741517.68,4309854.18,156.91,6346
741517.98,4309854.93,156.93,6346
741517.6900000001,4309853.61,156.89000000000001,6346
741517.86,4309854.85,156.94,6346
741518.53,4309853.72,156.94,6346
741519.63,4309854.03,156.98,6346
741518.81,4309854.48,156.96,6346
741518.68,4309854.41,156.95000000000002,6346
741519.5,4309853.96,156.98,6346
741519.0700000001,4309854.96,157.01,6346
741520.4500000001,4309853.58,157.01,6346
741520.4,4309854.87,157.06,6346
741520.7000000001,4309854.0600000005,157.06,6346
741519.88,4309854.51,157.04,6346
741521.22,4309854.42,157.1,6346
741522.05,4309853.97,157.12,6346
741521.52,4309853.62,157.05,6346
741521.78,4309854.8,157.11,6346
741523.85,4309854.19,157.19,6346
741523.03,4309854.65,157.08,6346
741522.61,4309854.34,157.14000000000001,6346
741523.42,4309853.9,157.18,6346
741524.68,4309853.74,157.22,6346
741524.97,4309854.8,157.15,6346
741524.93,4309854.41,157.15,6346
741524.11,4309854.85,157.13,6346
741525.8,4309854.35,157.15,6346
741526.62,4309853.9,157.23,6346
741525.75,4309853.95,157.18,6346
741526.47,4309854.76,157.21,6346
741527.68,4309854.18,157.27,6346
741526.85,4309854.63,157.21,6346
741527.29,4309854.3100000005,157.24,6346
741528.12,4309853.85,157.26,6346
741528.06,4309854.7,157.24,6346
741528.5,4309853.73,157.26,6346
741528.8,4309854.7700000005,157.27,6346
741529.62,4309854.32,157.33,6346
741528.87,4309854.25,157.27,6346
741530.4400000001,4309853.86,157.36,6346
741529.6900000001,4309853.8,157.32,6346
741530.24,4309854.98,157.32,6346
741531.06,4309854.5200000005,157.34,6346
741531.76,4309854.63,157.35,6346
741531.89,4309854.07,157.39000000000001,6346
741533.4,4309853.73,157.43,6346
741532.59,4309854.18,157.38,6346
741532.71,4309853.62,157.41,6346
741533.4400000001,4309854.54,157.39000000000001,6346
741533.9400000001,4309854.5,157.4,6346
741534.76,4309854.05,157.44,6346
741535.0700000001,4309853.64,157.47,6346
741534.26,4309854.09,157.43,6346
741535.59,4309853.59,157.47,6346
741536.64,4309853.93,157.5,6346
741536.5700000001,4309853.86,157.53,6346
741537.1900000001,4309854.91,158.35,6346
741538.04,4309854.48,157.74,6346
741538.11,4309853.89,157.57,6346
741537.29,4309854.34,157.56,6346
741538.88,4309854.04,157.62,6346
741539.71,4309853.58,157.62,6346
741499.67,4309856.41,156.26,6346
741500.6900000001,4309856.22,156.28,6346
741500.49,4309855.96,156.34,6346
741501.53,4309855.76,156.38,6346
741502.59,4309856.14,156.36,6346
741503.72,4309855.88,156.36,6346
741502.91,4309856.33,156.33,6346
741503.41,4309855.7,156.38,6346
741504.55,4309855.43,156.4,6346
741504.24,4309855.24,156.44,6346
741505.03,4309855.91,156.46,6346
741504.21,4309856.36,156.42000000000002,6346
741505.86,4309856.1,156.46,6346
741506.6900000001,4309855.65,156.5,6346
741506.65,4309855.03,156.51,6346
741505.84,4309855.47,156.49,6346
741506.78,4309856.29,156.54,6346
741507.51,4309855.2,156.52,6346
741507.96,4309855.82,156.6,6346
741507.14,4309856.2700000005,156.56,6346
741507.6,4309855.84,156.59,6346
741508.79,4309855.37,156.62,6346
741509.54,4309856.16,156.68,6346
741508.4400000001,4309855.38,156.63,6346
741509.6,4309855.5600000005,156.68,6346
741508.79,4309856.01,156.63,6346
741510.37,4309855.71,156.64000000000001,6346
741510.42,4309855.11,156.68,6346
741510.99,4309856.2,156.68,6346
741511.2000000001,4309855.26,156.69,6346
741512.22,4309855.94,156.73,6346
741511.4,4309856.39,156.70000000000002,6346
741511.8200000001,4309855.75,156.70000000000002,6346
741513.86,4309855.05,156.79,6346
741513.04,4309855.5,156.75,6346
741512.65,4309855.29,156.75,6346
741513.6,4309855.85,156.76,6346
741512.78,4309856.3,156.74,6346
741514.38,4309855.98,156.82,6346
741515.2000000001,4309855.53,156.89000000000001,6346
741514.42,4309855.4,156.81,6346
741515.38,4309856.21,156.88,6346
741516.03,4309855.08,156.85,6346
741516.34,4309855.83,156.94,6346
741515.51,4309856.28,156.9,6346
741516.2000000001,4309855.76,156.92000000000002,6346
741516.62,4309856.3,156.93,6346
741517.16,4309855.38,156.94,6346
741517.92,4309856.23,156.9,6346
741517.03,4309855.3100000005,156.9,6346
741518.26,4309855.4,156.99,6346
741517.4400000001,4309855.85,156.96,6346
741518.75,4309855.78,156.95000000000002,6346
741519.5700000001,4309855.32,157.03,6346
741519.31,4309856.15,156.97,6346
741520.58,4309856.0,157.02,6346
741520.14,4309855.7,156.99,6346
741520.9500000001,4309855.25,157.09,6346
741522.21,4309855.1,157.07,6346
741521.39,4309855.55,157.03,6346
741522.49,4309856.16,157.03,6346
741522.48,4309855.75,157.05,6346
741521.66,4309856.2,157.01,6346
741523.31,4309855.71,157.1,6346
741523.3,4309855.3,157.09,6346
741523.98,4309856.12,157.08,6346
741524.14,4309855.25,157.12,6346
741525.22,4309855.53,157.13,6346
741524.39,4309855.98,157.14000000000001,6346
741524.81,4309855.67,157.14000000000001,6346
741526.03,4309855.08,157.19,6346
741526.3200000001,4309856.13,157.15,6346
741525.63,4309855.22,157.15,6346
741526.43,4309855.6,157.17000000000002,6346
741525.61,4309856.05,157.15,6346
741527.14,4309855.67,157.19,6346
741527.97,4309855.22,157.23,6346
741527.24,4309855.15,157.20000000000002,6346
741527.76,4309856.34,157.20000000000002,6346
741529.3,4309855.99,157.24,6346
741528.59,4309855.88,157.23,6346
741529.41,4309855.43,157.28,6346
741530.9400000001,4309855.09,157.32,6346
741530.11,4309855.54,157.28,6346
741496.21,4309857.5600000005,156.09,6346
741495.8,4309857.76,156.1,6346
741496.63,4309857.3100000005,156.14000000000001,6346
741497.04,4309857.11,156.23,6346
741498.2000000001,4309857.58,156.16,6346
741497.4500000001,4309856.85,156.33,6346
741498.03,4309857.3,156.17000000000002,6346
741497.21,4309857.75,156.14000000000001,6346
741499.03,4309857.13,156.19,6346
741498.85,4309856.86,156.20000000000002,6346
741499.86,4309856.67,156.23,6346
741500.43,4309857.67,156.23,6346
741500.1,4309857.5,156.24,6346
741500.93,4309857.05,156.3,6346
741502.08,4309856.7700000005,156.31,6346
741501.26,4309857.23,156.27,6346
741501.76,4309856.6,156.29,6346
741502.59,4309857.25,156.36,6346
741501.77,4309857.69,156.32,6346
741503.37,4309857.45,156.37,6346
741503.39,4309856.8,156.39000000000001,6346
741504.2000000001,4309857.0,156.37,6346
741505.03,4309856.55,156.44,6346
741505.48,4309857.18,156.48,6346
741504.66,4309857.63,156.44,6346
741504.29,4309857.65,156.43,6346
741505.12,4309857.19,156.44,6346
741506.31,4309856.72,156.51,6346
741505.9500000001,4309856.74,156.48,6346
741506.34,4309857.35,156.48,6346
741505.52,4309857.8,156.45000000000002,6346
741507.06,4309857.51,156.57,6346
741507.89,4309857.0600000005,156.61,6346
741507.97,4309856.46,156.59,6346
741507.16,4309856.9,156.58,6346
741508.71,4309856.61,156.64000000000001,6346
741509.76,4309857.29,156.66,6346
741508.9400000001,4309857.73,156.68,6346
741508.51,4309857.55,156.63,6346
741509.33,4309857.1,156.62,6346
741510.58,4309856.84,156.65,6346
741511.06,4309857.79,156.72,6346
741510.17,4309856.65,156.66,6346
741511.15,4309857.19,156.73,6346
741510.34,4309857.63,156.68,6346
741511.89,4309857.34,156.75,6346
741511.97,4309856.74,156.75,6346
741512.72,4309856.88,156.78,6346
741513.54,4309856.43,156.83,6346
741513.86,4309857.19,156.83,6346
741513.04,4309857.64,156.75,6346
741512.9,4309857.5600000005,156.79,6346
741513.73,4309857.11,156.85,6346
741514.6900000001,4309856.73,156.86,6346
741515.4400000001,4309857.58,156.83,6346
741514.56,4309856.66,156.87,6346
741514.99,4309857.2,156.81,6346
741514.18,4309857.64,156.77,6346
741516.27,4309857.13,156.83,6346
741515.81,4309856.75,156.84,6346
741516.84,4309857.51,156.85,6346
741517.1,4309856.68,156.88,6346
741518.11,4309857.35,156.89000000000001,6346
741517.29,4309857.8,156.85,6346
741517.66,4309857.05,156.89000000000001,6346
741518.92,4309856.9,156.93,6346
741518.49,4309856.6,156.94,6346
741519.22,4309857.55,156.93,6346
741519.74,4309856.45,156.96,6346
741520.01,4309857.51,156.95000000000002,6346
741520.84,4309857.0600000005,156.98,6346
741521.11,4309857.79,156.95000000000002,6346
741520.85,4309856.65,156.98,6346
741520.03,4309857.1,156.96,6346
741521.67,4309856.61,157.02,6346
741521.93,4309857.33,157.01,6346
741521.49,4309857.49,157.01,6346
741522.3200000001,4309857.03,157.02,6346
741523.5700000001,4309856.44,157.05,6346
741522.75,4309856.88,157.04,6346
741523.84,4309857.48,157.04,6346
741523.15,4309856.58,157.06,6346
741523.98,4309856.95,157.09,6346
741523.16,4309857.4,157.02,6346
741524.66,4309857.03,157.1,6346
741524.79,4309856.5,157.13,6346
741525.49,4309856.58,157.13,6346
741526.93,4309856.79,157.15,6346
741491.04,4309858.84,155.94,6346
741492.11,4309858.97,155.91,6346
741491.86,4309858.38,156.12,6346
741492.9400000001,4309858.5200000005,155.96,6346
741493.77,4309858.0600000005,156.1,6346
741493.76,4309858.9,155.97,6346
741493.31,4309859.11,155.98,6346
741494.14,4309858.66,156.01,6346
741495.4,4309858.0,156.06,6346
741494.58,4309858.45,156.01,6346
741494.96,4309858.21,156.06,6346
741495.5700000001,4309858.65,156.07,6346
741494.76,4309859.09,156.03,6346
741495.7000000001,4309858.93,156.06,6346
741496.39,4309858.2,156.09,6346
741496.52,4309858.48,156.1,6346
741497.36,4309858.03,156.12,6346
741497.97,4309859.0200000005,156.15,6346
741497.63,4309858.85,156.16,6346
741499.62,4309858.12,156.23,6346
741498.8,4309858.5600000005,156.20000000000002,6346
741498.4500000001,4309858.4,156.16,6346
741499.28,4309857.95,156.21,6346
741499.33,4309859.03,156.24,6346
741500.05,4309859.26,156.23,6346
741500.87,4309858.8100000005,156.26,6346
741500.96,4309858.14,156.29,6346
741500.14,4309858.59,156.24,6346
741501.71,4309858.36,156.32,6346
741502.54,4309857.91,156.33,6346
741502.17,4309858.98,156.34,6346
741501.8,4309859.01,156.31,6346
741502.63,4309858.55,156.34,6346
741503.84,4309858.08,156.41,6346
741503.0,4309858.53,156.36,6346
741503.46,4309858.1,156.39000000000001,6346
741503.89,4309858.69,156.4,6346
741503.0700000001,4309859.14,156.37,6346
741504.58,4309858.87,156.43,6346
741505.41,4309858.42,156.46,6346
741504.7000000001,4309858.25,156.43,6346
741506.24,4309857.96,156.5,6346
741506.48,4309859.08,156.55,6346
741506.02,4309858.91,156.52,6346
741506.85,4309858.45,156.57,6346
741508.12,4309858.18,156.61,6346
741507.29,4309858.63,156.57,6346
741507.6900000001,4309858.0,156.58,6346
741507.89,4309858.98,156.61,6346
741508.5700000001,4309859.15,156.61,6346
741509.41,4309858.69,156.64000000000001,6346
741509.52,4309858.08,156.67000000000002,6346
741508.71,4309858.53,156.63,6346
741510.23,4309858.24,156.67000000000002,6346
741510.56,4309859.0,156.67000000000002,6346
741510.43,4309858.92,156.68,6346
741512.21,4309858.09,156.71,6346
741511.38,4309858.55,156.70000000000002,6346
741511.27,4309858.46,156.68,6346
741512.09,4309858.01,156.76,6346
741512.55,4309858.54,156.73,6346
741511.74,4309858.98,156.68,6346
741512.9500000001,4309858.95,156.69,6346
741513.78,4309858.49,156.74,6346
741513.36,4309858.09,156.76,6346
741514.61,4309858.04,156.77,6346
741514.8200000001,4309859.15,156.76,6346
741514.36,4309858.86,156.77,6346
741515.18,4309858.41,156.86,6346
741516.47,4309858.25,156.82,6346
741515.64,4309858.71,156.78,6346
741516.01,4309857.96,156.82,6346
741516.76,4309858.9,156.82,6346
741517.54,4309858.86,156.9,6346
741517.58,4309858.44,156.9,6346
741518.36,4309858.42,156.86,6346
741519.1900000001,4309857.96,156.92000000000002,6346
741519.47,4309858.69,156.89000000000001,6346
741518.64,4309859.14,156.86,6346
741518.4,4309858.0,156.88,6346
741519.0,4309858.85,156.88,6346
741520.28,4309858.24,156.93,6346
741519.83,4309858.4,156.9,6346
741520.66,4309857.94,156.92000000000002,6346
741520.71,4309858.74,156.93,6346
741522.34,4309857.85,157.01,6346
741521.53,4309858.29,156.96,6346
741523.02,4309857.93,157.04,6346
741486.41,4309860.53,155.72,6346
741485.87,4309860.48,155.71,6346
741486.7000000001,4309860.0200000005,155.86,6346
741487.22,4309860.07,156.02,6346
741487.77,4309860.62,155.75,6346
741489.62,4309860.32,155.83,6346
741489.41,4309859.73,155.84,6346
741488.59,4309860.18,155.77,6346
741490.4500000001,4309859.87,155.85,6346
741491.28,4309859.42,155.89000000000001,6346
741491.29,4309860.24,155.88,6346
741490.23,4309859.28,155.88,6346
741490.8200000001,4309860.47,155.88,6346
741492.11,4309859.8,155.92000000000002,6346
741491.65,4309860.0200000005,155.91,6346
741492.48,4309859.57,155.93,6346
741492.29,4309860.44,155.93,6346
741492.93,4309859.35,155.95000000000002,6346
741493.1900000001,4309860.29,155.97,6346
741494.03,4309859.84,156.01,6346
741493.9400000001,4309859.54,156.0,6346
741493.11,4309859.99,155.96,6346
741494.87,4309859.38,156.03,6346
741495.51,4309860.36,156.07,6346
741494.31,4309860.65,156.03,6346
741495.15,4309860.2,156.04,6346
741496.33,4309859.91,156.09,6346
741495.97,4309859.75,156.09,6346
741496.8,4309859.3,156.17000000000002,6346
741496.89,4309860.36,156.14000000000001,6346
741497.15,4309859.46,156.16,6346
741497.55,4309860.62,156.13,6346
741498.38,4309860.17,156.18,6346
741497.7000000001,4309859.92,156.16,6346
741499.21,4309859.71,156.22,6346
741499.6900000001,4309860.34,156.25,6346
741498.52,4309859.47,156.19,6346
741499.31,4309860.36,156.27,6346
741500.53,4309859.88,156.26,6346
741500.14,4309859.91,156.23,6346
741500.97,4309859.46,156.29,6346
741500.61,4309860.48,156.32,6346
741501.35,4309859.43,156.31,6346
741501.27,4309860.67,156.34,6346
741502.09,4309860.22,156.33,6346
741502.25,4309859.59,156.34,6346
741501.43,4309860.04,156.32,6346
741502.92,4309859.7700000005,156.39000000000001,6346
741503.75,4309859.32,156.4,6346
741504.02,4309860.43,156.43,6346
741503.55,4309860.26,156.43,6346
741504.84,4309859.98,156.47,6346
741504.38,4309859.8,156.47,6346
741505.2000000001,4309859.36,156.5,6346
741505.4500000001,4309860.32,156.44,6346
741505.66,4309859.53,156.5,6346
741506.09,4309860.5,156.46,6346
741506.92,4309860.05,156.47,6346
741506.26,4309859.87,156.47,6346
741507.74,4309859.6,156.58,6346
741508.08,4309860.36,156.52,6346
741507.08,4309859.42,156.57,6346
741507.96,4309860.2700000005,156.53,6346
741509.73,4309859.45,156.6,6346
741508.9,4309859.9,156.59,6346
741508.79,4309859.8100000005,156.61,6346
741509.61,4309859.37,156.65,6346
741509.29,4309860.33,156.56,6346
741510.47,4309860.3,156.6,6346
741510.91,4309859.44,156.63,6346
741510.1,4309859.88,156.65,6346
741511.06,4309860.67,156.64000000000001,6346
741511.29,4309859.85,156.68,6346
741512.12,4309859.39,156.73,6346
741512.36,4309860.5,156.66,6346
741511.88,4309860.22,156.71,6346
741514.0,4309859.6,156.78,6346
741513.18,4309860.05,156.69,6346
741512.71,4309859.76,156.75,6346
741513.53,4309859.3100000005,156.77,6346
741514.23,4309860.68,156.70000000000002,6346
741515.0700000001,4309860.22,156.74,6346
741515.12,4309859.8,156.76,6346
741514.31,4309860.25,156.71,6346
741515.89,4309859.7700000005,156.77,6346
741516.71,4309859.32,156.78,6346
741515.9500000001,4309859.34,156.79,6346
741517.8200000001,4309859.59,156.82,6346
741517.34,4309859.76,156.82,6346
741518.16,4309859.3100000005,156.86,6346
741481.15,4309861.82,155.70000000000002,6346
741481.71,4309861.78,155.65,6346
741483.93,4309861.88,155.67000000000002,6346
741483.37,4309861.84,155.59,6346
741484.2000000001,4309861.39,155.62,6346
741485.58,4309860.98,155.67000000000002,6346
741484.75,4309861.43,155.63,6346
741485.04,4309860.94,155.65,6346
741485.3200000001,4309861.96,155.67000000000002,6346
741486.96,4309861.07,155.73,6346
741486.14,4309861.51,155.68,6346
741487.14,4309861.66,155.73,6346
741487.96,4309861.22,155.75,6346
741488.0,4309862.03,155.78,6346
741488.33,4309861.82,155.8,6346
741488.79,4309860.7700000005,155.79,6346
741489.64,4309861.14,155.83,6346
741488.8200000001,4309861.58,155.8,6346
741489.87,4309862.1,155.84,6346
741489.16,4309861.37,155.82,6346
741489.83,4309861.78,155.85,6346
741490.46,4309860.69,155.85,6346
741490.7000000001,4309861.65,155.89000000000001,6346
741489.99,4309860.92,155.85,6346
741490.66,4309861.33,155.9,6346
741491.53,4309861.19,155.94,6346
741492.37,4309860.74,155.93,6346
741491.48,4309860.88,155.9,6346
741491.83,4309862.0,155.94,6346
741492.66,4309861.55,155.96,6346
741493.86,4309861.26,156.02,6346
741493.04,4309861.71,155.94,6346
741493.49,4309861.1,156.0,6346
741494.68,4309860.8100000005,156.01,6346
741495.06,4309861.97,156.09,6346
741495.27,4309861.25,156.06,6346
741494.4500000001,4309861.7,156.04,6346
741495.89,4309861.5200000005,156.08,6346
741496.08,4309860.8100000005,156.1,6346
741496.72,4309861.07,156.1,6346
741496.83,4309861.72,156.16,6346
741498.04,4309861.24,156.19,6346
741497.22,4309861.69,156.17000000000002,6346
741497.65,4309861.2700000005,156.17000000000002,6346
741498.16,4309861.83,156.19,6346
741498.87,4309860.79,156.19,6346
741498.79,4309862.0200000005,156.25,6346
741499.61,4309861.57,156.28,6346
741498.48,4309860.82,156.18,6346
741499.8,4309860.93,156.29,6346
741498.97,4309861.38,156.24,6346
741500.43,4309861.12,156.32,6346
741500.24,4309862.07,156.22,6346
741501.0700000001,4309861.62,156.27,6346
741502.38,4309861.33,156.32,6346
741501.56,4309861.78,156.29,6346
741501.89,4309861.16,156.38,6346
741503.2000000001,4309860.88,156.36,6346
741503.6,4309861.86,156.39000000000001,6346
741502.72,4309860.71,156.41,6346
741503.8200000001,4309861.22,156.36,6346
741502.99,4309861.67,156.32,6346
741504.43,4309861.41,156.37,6346
741505.26,4309860.96,156.4,6346
741504.63,4309860.7700000005,156.41,6346
741504.66,4309862.08,156.38,6346
741505.49,4309861.62,156.44,6346
741506.43,4309861.26,156.45000000000002,6346
741505.59,4309861.72,156.39000000000001,6346
741506.31,4309861.17,156.45000000000002,6346
741506.84,4309861.67,156.44,6346
741507.25,4309860.8100000005,156.46,6346
741507.17,4309862.1,156.45000000000002,6346
741507.99,4309861.65,156.45000000000002,6346
741507.13,4309860.72,156.5,6346
741507.65,4309861.23,156.49,6346
741508.81,4309861.21,156.51,6346
741509.64,4309860.75,156.55,6346
741508.47,4309860.78,156.51,6346
741508.59,4309862.0200000005,156.5,6346
741509.41,4309861.57,156.54,6346
741510.71,4309861.41,156.63,6346
741509.89,4309861.86,156.52,6346
741510.24,4309861.12,156.58,6346
741511.54,4309860.96,156.61,6346
741511.85,4309861.59,156.66,6346
741513.41,4309861.13,156.69,6346
741513.49,4309860.69,156.73,6346
741512.67,4309861.15,156.66,6346
741479.51,4309862.72,155.52,6346
741480.05,4309862.68,155.48,6346
741480.88,4309862.23,155.57,6346
741480.3200000001,4309862.2700000005,155.57,6346
741480.86,4309863.2,155.51,6346
741482.28,4309862.7700000005,155.55,6346
741481.46,4309863.22,155.55,6346
741481.7000000001,4309862.75,155.54,6346
741482.54,4309862.29,155.56,6346
741483.11,4309862.32,155.58,6346
741483.8200000001,4309863.46,155.61,6346
741483.6900000001,4309862.85,155.6,6346
741482.87,4309863.3,155.58,6346
741484.65,4309863.01,155.65,6346
741485.48,4309862.5600000005,155.67000000000002,6346
741485.54,4309863.37,155.66,6346
741484.5,4309862.41,155.64000000000001,6346
741486.31,4309862.11,155.69,6346
741486.36,4309862.93,155.70000000000002,6346
741485.84,4309863.18,155.68,6346
741486.68,4309862.72,155.72,6346
741487.18,4309862.48,155.75,6346
741487.37,4309863.45,155.75,6346
741488.2000000001,4309863.0,155.79,6346
741487.51,4309862.2700000005,155.76,6346
741488.2000000001,4309862.67,155.79,6346
741487.38,4309863.12,155.73,6346
741489.04,4309862.55,155.83,6346
741489.75,4309863.5,155.83,6346
741489.02,4309862.23,155.82,6346
741489.34,4309863.36,155.84,6346
741490.5700000001,4309863.05,155.87,6346
741490.17,4309862.91,155.88,6346
741491.0,4309862.45,155.92000000000002,6346
741491.1900000001,4309863.48,155.96,6346
741492.22,4309862.16,155.93,6346
741491.39,4309862.61,155.89000000000001,6346
741492.5700000001,4309863.32,155.99,6346
741492.02,4309863.03,155.95000000000002,6346
741493.4,4309862.87,156.01,6346
741493.91,4309863.49,156.05,6346
741493.64,4309862.14,156.01,6346
741492.8200000001,4309862.59,155.97,6346
741494.23,4309862.42,156.04,6346
741495.56,4309862.59,156.12,6346
741494.74,4309863.04,156.1,6346
741494.34,4309863.08,156.07,6346
741495.16,4309862.63,156.1,6346
741496.39,4309862.14,156.16,6346
741496.31,4309863.37,156.08,6346
741496.0,4309862.17,156.14000000000001,6346
741495.7000000001,4309863.17,156.08,6346
741496.53,4309862.72,156.1,6346
741497.14,4309862.92,156.1,6346
741497.97,4309862.47,156.20000000000002,6346
741497.35,4309862.2700000005,156.18,6346
741497.76,4309863.43,156.12,6346
741499.09,4309863.13,156.16,6346
741498.59,4309862.97,156.15,6346
741499.41,4309862.5200000005,156.19,6346
741499.73,4309863.45,156.23,6346
741500.73,4309862.23,156.21,6346
741499.91,4309862.68,156.21,6346
741501.12,4309863.22,156.23,6346
741500.55,4309863.01,156.20000000000002,6346
741501.9500000001,4309862.7700000005,156.25,6346
741502.18,4309862.11,156.29,6346
741501.37,4309862.5600000005,156.27,6346
741502.2000000001,4309863.43,156.26,6346
741502.78,4309862.3100000005,156.3,6346
741503.9500000001,4309862.62,156.37,6346
741503.12,4309863.07,156.29,6346
741503.01,4309862.98,156.31,6346
741503.83,4309862.53,156.38,6346
741503.5700000001,4309863.46,156.35,6346
741504.77,4309862.17,156.39000000000001,6346
741504.6900000001,4309863.46,156.33,6346
741505.51,4309863.01,156.37,6346
741505.21,4309862.57,156.38,6346
741504.39,4309863.0200000005,156.33,6346
741506.34,4309862.5600000005,156.39000000000001,6346
741506.03,4309862.12,156.41,6346
741506.12,4309863.38,156.42000000000002,6346
741508.25,4309862.76,156.46,6346
741506.9400000001,4309862.92,156.43,6346
